# .PCD v0.7 - Point Cloud Data file format
VERSION 0.7
FIELDS x y z intensity
SIZE 4 4 4 4
TYPE F F F F
COUNT 1 1 1 1
WIDTH 1380
HEIGHT 1
VIEWPOINT 0 0 0 1 0 0 0
POINTS 1380
DATA ascii
-49.72546 -64.906166 -3.2929711 0
-49.660141 -64.919601 -3.2251747 0
-41.887814 -64.987274 -3.2772331 0
-20.410744 -64.982918 -3.2341404 0
-49.944046 -64.875969 -3.2311196 0
-49.849201 -64.856186 -3.2109923 0
-49.610657 -64.824043 -3.2877491 0
-49.538773 -64.819962 -3.2646594 0
-48.486031 -64.818672 -3.2888815 0
-47.317207 -64.836014 -3.2992194 0
-41.771786 -64.843811 -3.262912 0
-41.674091 -64.831238 -3.2568488 0
-20.439207 -64.829979 -3.2405517 0
-20.376476 -64.85894 -3.2660432 0
-49.822899 -64.712639 -3.2068589 0
-49.577122 -64.777466 -3.2636919 0
-41.469414 -64.794357 -3.2547781 0
-49.858322 -64.606651 -3.2684829 0
-49.724171 -64.607712 -3.2941146 0
-48.337528 -64.687592 -3.2920642 0
-48.23679 -64.662544 -3.2576399 0
-41.372581 -64.667671 -3.240489 0
-49.599506 -64.566849 -3.2878754 0
-49.49868 -64.595482 -3.236604 0
-36.432838 -64.535645 -3.2938228 0
-41.294807 -64.450584 -3.2178147 0
-36.391609 -64.42778 -3.203743 0
-36.287064 -64.439728 -3.2852204 0
-35.393101 -64.422493 -3.2499688 0
-41.217133 -64.340645 -3.2035224 0
-36.530437 -64.322136 -3.2547193 0
-36.094364 -64.374428 -3.2797983 0
-35.970509 -64.339157 -3.2448015 0
-49.51181 -64.226105 -3.2073379 0
-48.806267 -64.202187 -3.261188 0
-48.691437 -64.27269 -3.2634125 0
-43.472771 -64.219772 -3.2155218 0
-35.409927 -64.282913 -3.264456 0
-49.50185 -64.161469 -3.2315431 0
-49.462959 -64.132141 -3.2090654 0
-43.38578 -64.171043 -3.2074943 0
-40.777458 -64.139915 -3.2861702 0
-40.549812 -64.143051 -3.2908688 0
-36.362991 -64.195824 -3.2477844 0
-20.467855 -64.137665 -3.2248673 0
-49.440727 -64.051216 -3.2423368 0
-49.394173 -64.030785 -3.2115777 0
-48.950294 -64.01207 -3.2339401 0
-48.816914 -64.058563 -3.2990065 0
-40.946953 -64.032913 -3.2416749 0
-40.534721 -64.069771 -3.2843139 0
-35.867184 -64.039139 -3.251179 0
-35.621643 -64.090752 -3.2570691 0
-35.497795 -64.075241 -3.2444196 0
-34.803146 -64.057213 -3.2241113 0
-20.463587 -64.087959 -3.225651 0
-49.386162 -63.917862 -3.2151895 0
-49.145374 -63.952396 -3.2357655 0
-49.006531 -63.996559 -3.2666345 0
-48.985481 -63.945496 -3.2685506 0
-48.799088 -63.998974 -3.2957437 0
-48.626469 -63.905159 -3.2325919 0
-40.285721 -63.966667 -3.2778995 0
-37.628456 -63.911873 -3.2179418 0
-36.802109 -63.935986 -3.2915249 0
-35.76115 -63.937737 -3.2370346 0
-48.988205 -63.84021 -3.2463994 0
-48.630409 -63.808964 -3.2820888 0
-48.5961 -63.804089 -3.2400694 0
-40.176113 -63.885303 -3.2059052 0
-37.748981 -63.801258 -3.2895629 0
-37.648998 -63.832256 -3.2559757 0
-37.395065 -63.83873 -3.2218728 0
-36.592659 -63.865631 -3.2506139 0
-36.404514 -63.894512 -3.2450674 0
-20.939528 -63.800461 -3.2644751 0
-49.52486 -63.764725 -3.2208347 0
-48.90144 -63.798599 -3.2225456 0
-48.823204 -63.739407 -3.2492125 0
-48.790558 -63.775845 -3.2853353 0
-48.67342 -63.756405 -3.2270784 0
-48.586159 -63.700146 -3.2476947 0
-38.131325 -63.785366 -3.2623744 0
-37.639114 -63.734962 -3.2633047 0
-35.682537 -63.798473 -3.222477 0
-35.349869 -63.798046 -3.2264712 0
-48.868851 -63.616665 -3.2947769 0
-48.795612 -63.631851 -3.2571576 0
-48.6604 -63.666656 -3.2905414 0
-48.576244 -63.635376 -3.2342293 0
-48.368519 -63.62426 -3.2021422 0
-39.255703 -63.641621 -3.2692585 0
-38.110336 -63.644112 -3.2465322 0
-37.219009 -63.630135 -3.2690873 0
-37.125477 -63.613731 -3.2887797 0
-37.091755 -63.609364 -3.2889116 0
-36.982368 -63.669071 -3.2772779 0
-36.847889 -63.638397 -3.2649896 0
-34.986778 -63.606766 -3.2347898 0
-34.755444 -63.649136 -3.219023 0
-49.027489 -63.564949 -3.2619455 0
-48.933235 -63.506336 -3.2709951 0
-48.878448 -63.594902 -3.237947 0
-48.676971 -63.551613 -3.2622802 0
-40.460365 -63.522278 -3.2657368 0
-37.439342 -63.559502 -3.2226813 0
-37.369125 -63.551712 -3.2888508 0
-36.296326 -63.568409 -3.2428946 0
-35.69268 -63.500736 -3.2096293 0
-35.422489 -63.556999 -3.2128093 0
-34.855091 -63.583767 -3.2597396 0
-21.016653 -63.55423 -3.269284 0
-49.025211 -63.441288 -3.2726657 0
-48.852882 -63.473236 -3.25172 0
-48.733902 -63.436989 -3.2553248 0
-48.618252 -63.428791 -3.2924337 0
-40.383606 -63.475033 -3.2560065 0
-38.44178 -63.408234 -3.2452033 0
-38.229195 -63.437294 -3.2347374 0
-38.13279 -63.433903 -3.2505407 0
-37.418365 -63.460846 -3.2416623 0
-35.069351 -63.404255 -3.2941613 0
-49.064037 -63.323914 -3.2840495 0
-48.648369 -63.355339 -3.2866912 0
-48.53828 -63.332111 -3.2279499 0
-48.373901 -63.310673 -3.2717214 0
-43.114311 -63.329533 -3.2256038 0
-43.048382 -63.36821 -3.2236905 0
-39.06068 -63.370247 -3.2822568 0
-38.362267 -63.382126 -3.2165878 0
-38.082279 -63.389111 -3.2688329 0
-37.969311 -63.322044 -3.2208033 0
-35.038113 -63.361752 -3.2161734 0
-34.892311 -63.332325 -3.2667968 0
-49.065334 -63.222897 -3.244982 0
-48.670013 -63.298656 -3.2637484 0
-48.528305 -63.252281 -3.2569742 0
-48.459702 -63.26807 -3.2203951 0
-48.087841 -63.290089 -3.2262065 0
-43.318611 -63.232586 -3.2303464 0
-42.892956 -63.246132 -3.2152386 0
-38.464546 -63.212379 -3.25371 0
-38.077553 -63.260582 -3.2919302 0
-48.703835 -63.16927 -3.2855706 0
-48.538708 -63.170933 -3.2528734 0
-48.465694 -63.149414 -3.2645569 0
-39.720356 -63.132511 -3.2008691 0
-36.183048 -63.149681 -3.2822552 0
-48.607883 -63.02544 -3.2694616 0
-48.553478 -63.070663 -3.2752275 0
-48.390697 -63.068333 -3.2181892 0
-48.034187 -63.031963 -3.2878327 0
-36.687511 -63.08149 -3.2176697 0
-36.411098 -63.028679 -3.2466247 0
-36.34351 -63.080517 -3.2550244 0
-36.210663 -63.079605 -3.2618275 0
-48.606613 -62.957783 -3.2557154 0
-48.472149 -62.978252 -3.2296674 0
-48.320011 -62.965408 -3.2570996 0
-48.225937 -62.918869 -3.2741742 0
-48.153934 -62.936604 -3.2497408 0
-47.408218 -62.923717 -3.2475049 0
-40.026684 -62.916245 -3.2178836 0
-39.851143 -62.929359 -3.2001522 0
-38.410118 -62.932121 -3.2113142 0
-36.477108 -62.909019 -3.2392523 0
-36.188923 -62.962078 -3.2703502 0
-36.022213 -62.954388 -3.2978289 0
-35.913105 -62.962498 -3.2433128 0
-35.06966 -62.934525 -3.2272534 0
-48.746445 -62.882366 -3.2214417 0
-47.755589 -62.885487 -3.2562788 0
-47.6017 -62.807037 -3.2812545 0
-47.547161 -62.82618 -3.228312 0
-47.402458 -62.895409 -3.2208436 0
-47.247112 -62.818985 -3.2954063 0
-40.063873 -62.827282 -3.2297628 0
-38.830734 -62.864937 -3.2584097 0
-38.7108 -62.843128 -3.2499387 0
-36.586338 -62.856159 -3.2902553 0
-36.139679 -62.897926 -3.2689943 0
-36.09227 -62.888168 -3.2678976 0
-35.844013 -62.803169 -3.2987077 0
-34.713512 -62.890518 -3.2461455 0
-34.629707 -62.887093 -3.2916369 0
-48.298416 -62.708767 -3.2509668 0
-48.051411 -62.791374 -3.2596033 0
-47.63588 -62.779716 -3.2385771 0
-47.401905 -62.709919 -3.2197814 0
-47.335873 -62.777191 -3.243639 0
-36.059845 -62.716896 -3.2055449 0
-35.979416 -62.754105 -3.2293618 0
-35.871937 -62.773354 -3.2799962 0
-35.663441 -62.721615 -3.2982275 0
-34.725819 -62.702957 -3.2388399 0
-34.54496 -62.701347 -3.2587571 0
-48.0103 -62.687988 -3.2673411 0
-47.449043 -62.637932 -3.2237513 0
-47.398609 -62.692734 -3.221668 0
-47.209816 -62.667423 -3.2667813 0
-39.260075 -62.686172 -3.2881701 0
-38.76049 -62.690445 -3.2535946 0
-36.276844 -62.695007 -3.2186375 0
-36.075825 -62.697113 -3.2059999 0
-35.847366 -62.680695 -3.2047794 0
-34.646553 -62.68615 -3.2724655 0
-47.461449 -62.573364 -3.2299614 0
-47.389938 -62.535973 -3.2651641 0
-36.221542 -62.573555 -3.2482417 0
-36.091045 -62.574169 -3.2894406 0
-21.619202 -62.585026 -3.2841747 0
-47.558693 -62.450344 -3.2258337 0
-47.439678 -62.467064 -3.2337279 0
-47.37648 -62.421284 -3.2792053 0
-36.321918 -62.442043 -3.2254703 0
-35.9189 -62.469223 -3.2168059 0
-35.83498 -62.495522 -3.2338369 0
-35.304558 -62.448608 -3.2071848 0
-47.352535 -62.343269 -3.2404528 0
-47.26379 -62.337738 -3.2406666 0
-36.422043 -62.324284 -3.2968373 0
-36.38052 -62.371441 -3.2490575 0
-36.24366 -62.338299 -3.2611523 0
-35.910324 -62.395821 -3.2946169 0
-35.313965 -62.394806 -3.2017794 0
-35.273361 -62.378174 -3.2354066 0
-21.774414 -62.342686 -3.29283 0
-21.358913 -62.308292 -3.2193122 0
-47.160294 -62.260155 -3.2391438 0
-39.139954 -62.239014 -3.2836995 0
-38.963074 -62.241531 -3.2185202 0
-35.949547 -62.261673 -3.2766838 0
-35.860611 -62.233849 -3.2656732 0
-47.992184 -62.123714 -3.2378716 0
-47.461189 -62.146965 -3.2420402 0
-47.355682 -62.17041 -3.2403038 0
-47.167473 -62.104218 -3.2968016 0
-38.74585 -62.189346 -3.2065179 0
-36.005081 -62.190365 -3.2844105 0
-35.887585 -62.113861 -3.2610331 0
-21.963678 -62.136932 -3.2944736 0
-48.602634 -62.073681 -3.2722783 0
-48.35416 -62.071598 -3.2709086 0
-48.200886 -62.087463 -3.2477999 0
-47.769581 -62.074123 -3.263788 0
-47.637146 -62.071045 -3.2137933 0
-47.567574 -62.023785 -3.2619407 0
-47.43071 -62.095005 -3.2018411 0
-36.024548 -62.098495 -3.2893994 0
-35.983055 -62.050972 -3.2612209 0
-48.493961 -61.901985 -3.2367523 0
-47.854286 -61.927219 -3.2856803 0
-47.620941 -61.940475 -3.2027533 0
-47.59322 -61.928284 -3.2038686 0
-47.456871 -61.9552 -3.2068629 0
-47.320492 -61.982059 -3.2098415 0
-47.15617 -61.977592 -3.2272458 0
-47.091827 -61.916348 -3.2590027 0
-40.21769 -61.909752 -3.2736673 0
-39.949512 -61.91806 -3.2397475 0
-22.040171 -61.997574 -3.2945974 0
-48.060051 -61.848999 -3.2897627 0
-47.515324 -61.899761 -3.2580094 0
-47.289146 -61.805485 -3.2724199 0
-46.970428 -61.850037 -3.218328 0
-40.30151 -61.871204 -3.269937 0
-39.967152 -61.860069 -3.2551417 0
-48.737518 -61.791847 -3.2526329 0
-48.649414 -61.723511 -3.2020442 0
-48.038086 -61.751659 -3.2631223 0
-47.714161 -61.715038 -3.2213767 0
-47.301968 -61.730915 -3.2353601 0
-47.16441 -61.725021 -3.2256455 0
-47.076283 -61.712852 -3.2417073 0
-46.928574 -61.781013 -3.2350171 0
-39.806263 -61.768089 -3.2260294 0
-39.791031 -61.777596 -3.2260122 0
-48.584637 -61.637955 -3.2479165 0
-47.834435 -61.681446 -3.2339923 0
-40.143955 -61.602413 -3.2474961 0
-47.854996 -61.532352 -3.2896473 0
-47.280449 -61.556881 -3.2006497 0
-47.036434 -61.53241 -3.2315354 0
-46.956188 -61.530163 -3.2418287 0
-21.828985 -61.53965 -3.2266812 0
-48.68449 -61.468994 -3.2095537 0
-48.18927 -61.480656 -3.2243378 0
-47.304012 -61.495987 -3.2243702 0
-47.153748 -61.440163 -3.2603364 0
-47.07074 -61.483673 -3.2339311 0
-46.933903 -61.416695 -3.2416673 0
-40.020977 -61.498402 -3.2171006 0
-39.919403 -61.452751 -3.2151098 0
-39.891514 -61.428364 -3.2247577 0
-39.795166 -61.420258 -3.2405019 0
-22.309643 -61.491806 -3.2768774 0
-48.763855 -61.328506 -3.2185655 0
-47.864449 -61.397125 -3.2141862 0
-47.416859 -61.317547 -3.2057657 0
-47.279716 -61.335407 -3.2462938 0
-47.169743 -61.373241 -3.2250655 0
-47.022873 -61.395676 -3.2384067 0
-40.11488 -61.303967 -3.2469425 0
-40.088089 -61.376801 -3.2453566 0
-39.846863 -61.379082 -3.2731118 0
-22.065426 -61.33979 -3.2247491 0
-48.254532 -61.233532 -3.2026029 0
-47.887581 -61.221111 -3.2162685 0
-47.336857 -61.239197 -3.256151 0
-47.256493 -61.214901 -3.2635102 0
-47.129978 -61.258121 -3.2502489 0
-40.016865 -61.224579 -3.2429531 0
-39.04063 -61.228748 -3.2499685 0
-38.847649 -61.216717 -3.2688246 0
-38.730362 -61.223587 -3.2507153 0
-38.692554 -61.232792 -3.2683673 0
-47.113602 -61.169174 -3.2762799 0
-40.043842 -61.113903 -3.2044966 0
-39.941441 -61.138 -3.2156608 0
-39.872208 -61.146286 -3.2208266 0
-39.330063 -61.101711 -3.2357645 0
-38.823624 -61.152691 -3.2937613 0
-38.767284 -61.179886 -3.2390451 0
-38.429863 -61.144798 -3.2684772 0
-38.316383 -61.13179 -3.2409012 0
-38.254677 -61.147446 -3.2422342 0
-22.42942 -61.129524 -3.2494705 0
-48.435951 -61.025978 -3.2071359 0
-47.306713 -61.060284 -3.2262115 0
-47.295292 -61.018845 -3.2263556 0
-47.183002 -61.066601 -3.2647352 0
-39.154858 -61.054169 -3.25385 0
-38.945969 -61.006111 -3.233357 0
-47.35458 -60.911373 -3.231813 0
-47.269653 -60.952995 -3.2532697 0
-47.193142 -60.924782 -3.2693455 0
-47.043236 -60.983929 -3.26946 0
-39.037506 -60.932686 -3.2502251 0
-38.989693 -60.947826 -3.2787948 0
-38.869244 -60.983261 -3.2781713 0
-22.455658 -60.937023 -3.240355 0
-48.555721 -60.879131 -3.2077172 0
-48.488319 -60.848324 -3.2149141 0
-47.350811 -60.857391 -3.2259066 0
-47.245193 -60.835438 -3.283596 0
-47.14344 -60.889957 -3.2705069 0
-22.47714 -60.87167 -3.2426465 0
-48.255074 -60.718822 -3.2207053 0
-47.352394 -60.720718 -3.2797232 0
-47.171562 -60.7258 -3.2502701 0
-48.494907 -60.644901 -3.2340283 0
-47.447315 -60.625957 -3.2579353 0
-47.338017 -60.677303 -3.2332821 0
-47.222229 -60.604218 -3.2911987 0
-47.523071 -60.554893 -3.2694445 0
-47.498581 -60.506401 -3.2735159 0
-47.357449 -60.597275 -3.2492566 0
-47.130608 -60.535099 -3.2862179 0
-22.924534 -60.572792 -3.2369299 0
-47.906254 -60.439747 -3.2976642 0
-47.755196 -60.401878 -3.265523 0
-47.659031 -60.414906 -3.208657 0
-47.45789 -60.496437 -3.2334139 0
-47.262501 -60.423618 -3.2565343 0
-22.983875 -60.469101 -3.2348375 0
-47.928318 -60.393879 -3.281657 0
-47.333549 -60.322857 -3.280365 0
-47.84549 -60.229561 -3.2636023 0
-47.627949 -60.297531 -3.2100403 0
-47.895103 -60.170303 -3.2502894 0
-23.214842 -60.129707 -3.2652085 0
-47.94841 -60.054497 -3.2535045 0
-47.852871 -60.062347 -3.2324049 0
-47.708065 -60.075649 -3.2760901 0
-23.227278 -60.061222 -3.2388167 0
-47.738243 -59.95776 -3.2387683 0
-47.696156 -59.969585 -3.2213087 0
-47.599472 -59.949959 -3.2686689 0
-47.419167 -59.927868 -3.2611692 0
-47.752792 -59.854599 -3.2408342 0
-47.658844 -59.855778 -3.2152333 0
-47.570114 -59.816746 -3.2657042 0
-47.328007 -59.850471 -3.2457213 0
-47.766304 -59.788292 -3.2042644 0
-47.619278 -59.757111 -3.229497 0
-47.541798 -59.747597 -3.2588439 0
-47.453293 -59.716084 -3.2149868 0
-47.377121 -59.749817 -3.2117255 0
-47.254608 -59.767689 -3.2439868 0
-47.187641 -59.773346 -3.2199478 0
-46.965458 -59.740963 -3.2978492 0
-47.692383 -59.675312 -3.2948632 0
-47.424263 -59.687302 -3.217505 0
-47.367477 -59.697277 -3.2360618 0
-47.242176 -59.649891 -3.2383077 0
-47.14748 -59.627293 -3.2315898 0
-47.029282 -59.681019 -3.218436 0
-47.131042 -59.550079 -3.2317417 0
-47.04723 -59.568497 -3.2498293 0
-47.117374 -59.4324 -3.2280471 0
-47.063541 -59.433666 -3.2465348 0
-46.995075 -59.440552 -3.2635343 0
-47.205315 -59.329941 -3.2460616 0
-47.136154 -59.352913 -3.2422881 0
-47.074894 -59.372185 -3.2452033 0
-47.268932 -59.240471 -3.2673409 0
-47.187824 -59.272575 -3.2929323 0
-47.071056 -59.265453 -3.2448928 0
-30.737026 -59.256207 -3.2400045 0
-47.518444 -59.139149 -3.2581527 0
-47.438667 -59.168171 -3.2786815 0
-47.217297 -59.153122 -3.2109745 0
-47.055206 -59.138084 -3.2346194 0
-24.344629 -59.180908 -3.2825005 0
-24.223793 -59.193237 -3.2634909 0
-47.336475 -59.027386 -3.2715814 0
-48.60326 -58.967472 -3.2096496 0
-47.454903 -58.953632 -3.2330112 0
-30.962057 -58.95052 -3.2490196 0
-24.650707 -58.926968 -3.294503 0
-24.12015 -58.975357 -3.2428386 0
-47.574352 -58.811352 -3.2926469 0
-47.355736 -58.83609 -3.2912049 0
-47.155605 -58.840355 -3.2175276 0
-30.868368 -58.827465 -3.2651653 0
-47.454308 -58.765511 -3.2893255 0
-47.322601 -58.746674 -3.2541916 0
-47.262951 -58.76376 -3.2311618 0
-31.15798 -58.742683 -3.2149584 0
-29.788834 -58.727573 -3.2449653 0
-47.94342 -58.663082 -3.2770386 0
-47.655235 -58.63781 -3.2087665 0
-47.341103 -58.658676 -3.2635484 0
-31.132311 -58.684307 -3.2228169 0
-49.236275 -58.404724 -3.2892046 0
-47.508732 -58.468437 -3.2604578 0
-47.239677 -58.49868 -3.2404778 0
-48.419598 -58.340477 -3.2382085 0
-47.29063 -58.354355 -3.2122757 0
-47.193577 -58.340134 -3.2268884 0
-30.659178 -58.369556 -3.2027638 0
-30.58882 -58.313564 -3.2117326 0
-47.973289 -58.222939 -3.2902079 0
-47.499863 -58.236145 -3.2685959 0
-47.350586 -58.203934 -3.2615073 0
-47.037254 -58.244282 -3.2865696 0
-47.909672 -58.195732 -3.2911031 0
-47.217854 -58.144051 -3.2248271 0
-47.179306 -58.137787 -3.245965 0
-46.868572 -58.171928 -3.290184 0
-30.294603 -58.152351 -3.2246153 0
-25.380959 -58.131241 -3.2745922 0
-47.643707 -58.057735 -3.2413108 0
-47.286442 -58.076015 -3.2280362 0
-47.178673 -58.031075 -3.2559688 0
-47.069302 -58.032558 -3.2020941 0
-31.068153 -58.025917 -3.200762 0
-25.466955 -58.007553 -3.2626646 0
-49.644817 -57.941162 -3.2094104 0
-47.858719 -57.947491 -3.272536 0
-47.626255 -57.995323 -3.2304475 0
-47.390713 -57.998589 -3.2382016 0
-47.131458 -57.938354 -3.2058098 0
-31.185221 -57.913177 -3.2006247 0
-31.064102 -57.931931 -3.2220643 0
-30.932619 -57.930294 -3.2085035 0
-30.441975 -57.939281 -3.2468174 0
-25.455223 -57.972958 -3.2512112 0
-47.881035 -57.865738 -3.2622936 0
-31.424389 -57.842297 -3.2101469 0
-31.297434 -57.843868 -3.2312219 0
-31.149996 -57.895702 -3.2287326 0
-30.977325 -57.873138 -3.2059665 0
-26.529255 -57.80579 -3.2927141 0
-25.975269 -57.842369 -3.2669744 0
-25.117886 -57.813763 -3.2041113 0
-48.301994 -57.730991 -3.2692323 0
-47.67572 -57.724525 -3.2156787 0
-47.561256 -57.746567 -3.2769153 0
-47.247589 -57.744621 -3.2711506 0
-31.354921 -57.707161 -3.2295959 0
-30.931904 -57.743954 -3.2397048 0
-30.559057 -57.719372 -3.2209423 0
-30.367735 -57.700584 -3.2193472 0
-48.310658 -57.691704 -3.2983112 0
-47.153343 -57.676262 -3.2411954 0
-31.335299 -57.682732 -3.2349389 0
-30.670404 -57.675369 -3.2524133 0
-30.337152 -57.655804 -3.26016 0
-26.388777 -57.616417 -3.2736778 0
-47.871967 -57.536644 -3.2683549 0
-47.585476 -57.518627 -3.2376273 0
-47.366497 -57.532825 -3.2239864 0
-47.289467 -57.512951 -3.2227998 0
-30.552593 -57.544083 -3.2288623 0
-30.305412 -57.587929 -3.2732797 0
-25.954906 -57.548279 -3.236176 0
-47.975925 -57.407948 -3.2437437 0
-47.735146 -57.401886 -3.2252645 0
-47.457867 -57.477543 -3.2934618 0
-47.342747 -57.426075 -3.2733893 0
-30.951015 -57.45414 -3.2484007 0
-30.85471 -57.471649 -3.2571864 0
-30.586376 -57.417053 -3.2379959 0
-26.567129 -57.484192 -3.2685039 0
-47.827404 -57.321083 -3.266 0
-30.931122 -57.369858 -3.2223685 0
-30.867682 -57.377701 -3.2921875 0
-27.746696 -57.374222 -3.2880683 0
-25.725313 -57.31974 -3.2056205 0
-47.197628 -57.233395 -3.2407196 0
-30.538404 -57.254868 -3.2925041 0
-27.171724 -57.264523 -3.2655206 0
-47.911732 -57.139908 -3.2691555 0
-47.457287 -57.158173 -3.2332528 0
-47.387169 -57.158554 -3.250535 0
-28.088596 -57.180424 -3.2959139 0
-27.138039 -57.160507 -3.2655227 0
-47.947887 -57.084358 -3.2445107 0
-47.753151 -57.012627 -3.2216907 0
-47.443932 -57.080116 -3.234611 0
-47.152088 -57.049713 -3.266386 0
-29.077356 -57.048477 -3.2615123 0
-28.264507 -57.09317 -3.2845085 0
-47.84491 -56.900562 -3.2503316 0
-47.756485 -56.93716 -3.2488596 0
-47.544357 -56.988167 -3.2430747 0
-47.281555 -56.966866 -3.2311468 0
-32.674484 -56.947334 -3.2982953 0
-32.38216 -56.926895 -3.28332 0
-28.253799 -56.975838 -3.2598267 0
-28.154436 -56.948208 -3.2624781 0
-28.070879 -56.913872 -3.2716858 0
-26.862246 -56.922527 -3.203573 0
-33.083885 -56.811962 -3.297385 0
-32.543953 -56.807629 -3.293597 0
-29.01387 -56.840115 -3.2711437 0
-28.413191 -56.883289 -3.2481418 0
-28.088781 -56.860924 -3.2670732 0
-27.97711 -56.856831 -3.2808614 0
-47.827099 -56.711052 -3.2594159 0
-32.934082 -56.700077 -3.2841043 0
-32.635769 -56.772339 -3.2894483 0
-32.183384 -56.704872 -3.2716758 0
-31.304943 -56.745457 -3.2976761 0
-29.931383 -56.73204 -3.2680581 0
-27.948399 -56.795464 -3.2807674 0
-48.499996 -56.68375 -3.2034912 0
-47.995884 -56.687618 -3.2934022 0
-41.564419 -56.643391 -3.258563 0
-31.496201 -56.606953 -3.265805 0
-47.856453 -56.54229 -3.2199025 0
-32.55011 -56.525772 -3.2742336 0
-31.5958 -56.588291 -3.2759523 0
-30.932222 -56.550743 -3.244858 0
-30.12435 -56.597038 -3.2670593 0
-29.924196 -56.559761 -3.2589059 0
-28.758842 -56.581917 -3.2316325 0
-28.678404 -56.548279 -3.2166367 0
-48.503639 -56.466412 -3.2393947 0
-32.763866 -56.475166 -3.2786808 0
-32.568386 -56.424896 -3.2755578 0
-32.340851 -56.480835 -3.2434442 0
-31.593393 -56.493343 -3.2585065 0
-31.012243 -56.478455 -3.2354474 0
-30.223112 -56.490211 -3.2462943 0
-48.33543 -56.348228 -3.2982912 0
-48.288334 -56.387741 -3.2022719 0
-36.898666 -56.381592 -3.2808475 0
-33.413033 -56.396515 -3.2956321 0
-32.57793 -56.395893 -3.2769005 0
-32.324776 -56.313259 -3.2303569 0
-32.250759 -56.303726 -3.2425575 0
-32.192993 -56.339413 -3.2370453 0
-31.759422 -56.341816 -3.2300358 0
-31.247196 -56.300442 -3.2067153 0
-31.155254 -56.394215 -3.218051 0
-30.82692 -56.384594 -3.2284358 0
-30.308174 -56.359615 -3.2113659 0
-48.57933 -56.223644 -3.2568665 0
-32.274979 -56.260632 -3.2501285 0
-31.636795 -56.222069 -3.211853 0
-31.376024 -56.27916 -3.2175076 0
-31.2544 -56.275875 -3.207974 0
-28.154516 -56.24826 -3.2066205 0
-48.87109 -56.159115 -3.2056415 0
-33.74614 -56.144817 -3.2981343 0
-33.511997 -56.168495 -3.2809591 0
-33.261974 -56.179653 -3.2546742 0
-32.660675 -56.18972 -3.2692907 0
-32.358521 -56.167717 -3.2492654 0
-31.851862 -56.106651 -3.2348616 0
-31.636684 -56.186535 -3.2120161 0
-49.002319 -56.016087 -3.2165961 0
-34.519573 -56.023003 -3.299269 0
-34.113029 -56.010384 -3.2861743 0
-32.969109 -56.031673 -3.2702451 0
-32.422806 -56.083485 -3.2431786 0
-32.372967 -56.079838 -3.2632358 0
-32.049335 -56.012394 -3.2147489 0
-31.339813 -56.099442 -3.2077098 0
-48.190571 -55.915737 -3.2880797 0
-34.245281 -55.938831 -3.2902067 0
-34.122437 -55.940414 -3.2869306 0
-33.754028 -55.932945 -3.2866294 0
-33.423817 -55.904472 -3.2591028 0
-32.713264 -55.932732 -3.2541382 0
-32.444965 -55.918072 -3.2127228 0
-32.387894 -55.97303 -3.2410059 0
-31.927853 -55.961792 -3.2195201 0
-31.354649 -55.940369 -3.2021983 0
-49.471062 -55.865776 -3.2282321 0
-48.412418 -55.845005 -3.2353463 0
-48.131271 -55.886795 -3.2247007 0
-34.196041 -55.875862 -3.2997324 0
-34.071766 -55.894859 -3.2807808 0
-33.94474 -55.854385 -3.2847254 0
-33.844887 -55.870728 -3.288372 0
-32.904797 -55.827778 -3.2519007 0
-32.64167 -55.832417 -3.232389 0
-32.50238 -55.868156 -3.2260401 0
-32.469368 -55.879452 -3.2340462 0
-32.387188 -55.810055 -3.2134647 0
-31.934361 -55.872227 -3.22612 0
-48.910469 -55.70953 -3.2639787 0
-48.222866 -55.742661 -3.2352085 0
-33.078491 -55.754288 -3.2473643 0
-32.519417 -55.793602 -3.2157011 0
-32.462597 -55.742626 -3.2211545 0
-32.295158 -55.771866 -3.2116401 0
-32.048885 -55.767132 -3.2251873 0
-31.970026 -55.773144 -3.2205329 0
-48.307159 -55.671295 -3.2414582 0
-32.638046 -55.618919 -3.2182183 0
-32.510902 -55.620304 -3.2159412 0
-32.17757 -55.624393 -3.2116873 0
-31.656494 -55.644024 -3.2081122 0
-33.4333 -55.530628 -3.248878 0
-32.213326 -55.501263 -3.2130966 0
-48.554089 -55.401943 -3.24669 0
-47.757923 -55.448166 -3.2939768 0
-33.443302 -55.405468 -3.2310617 0
-33.208687 -55.401447 -3.2183099 0
-33.103794 -55.41444 -3.2112677 0
-33.029732 -55.44577 -3.2139192 0
-32.94804 -55.47049 -3.2138457 0
-32.765423 -55.496967 -3.2246332 0
-32.541374 -55.489048 -3.2022376 0
-48.840103 -55.371017 -3.2068439 0
-33.654755 -55.33839 -3.258178 0
-33.342785 -55.397957 -3.2277305 0
-33.242401 -55.356621 -3.2159843 0
-32.905666 -55.353733 -3.2204702 0
-32.893211 -55.355171 -3.2160935 0
-32.614536 -55.302483 -3.2017965 0
-32.24012 -55.384747 -3.215106 0
-48.904835 -55.212029 -3.2942293 0
-48.839054 -55.288651 -3.2653081 0
-48.77198 -55.224808 -3.2571056 0
-48.661587 -55.276321 -3.2501836 0
-33.529823 -55.296253 -3.2659569 0
-33.371307 -55.283936 -3.2379284 0
-33.086536 -55.22324 -3.2223847 0
-32.410473 -55.24226 -3.2143123 0
-48.57864 -55.168255 -3.2406101 0
-48.407619 -55.117989 -3.249928 0
-32.950638 -55.12278 -3.2397504 0
-32.400093 -55.161751 -3.2051311 0
-48.806675 -55.048084 -3.2720032 0
-48.743874 -55.075546 -3.2654781 0
-48.673775 -55.040466 -3.2529554 0
-33.732426 -55.068733 -3.2726295 0
-33.01181 -55.05566 -3.2355888 0
-32.966858 -55.062843 -3.2323976 0
-48.819485 -54.904694 -3.27231 0
-48.648464 -54.963028 -3.2957506 0
-48.36002 -54.952099 -3.253644 0
-33.782238 -54.998886 -3.2777476 0
-33.370697 -54.935802 -3.2497895 0
-33.029549 -54.944344 -3.2260051 0
-48.843056 -54.89502 -3.2478786 0
-48.641205 -54.855 -3.2648854 0
-48.56002 -54.822582 -3.2196963 0
-48.245014 -54.888065 -3.2560439 0
-34.127956 -54.800957 -3.2923717 0
-33.861198 -54.847633 -3.2837596 0
-33.108677 -54.818844 -3.2400732 0
-33.040833 -54.867928 -3.22966 0
-48.527542 -54.780518 -3.2679677 0
-48.459587 -54.718403 -3.208086 0
-48.292198 -54.738476 -3.2947121 0
-48.152885 -54.752216 -3.2500482 0
-34.173046 -54.734592 -3.2946954 0
-33.946712 -54.751366 -3.2863557 0
-33.542603 -54.73127 -3.2616413 0
-33.494026 -54.78923 -3.2582877 0
-33.153912 -54.737106 -3.2439053 0
-33.074924 -54.754677 -3.24035 0
-32.592957 -54.728756 -3.2102616 0
-34.218987 -54.638641 -3.2925189 0
-34.155239 -54.600922 -3.2982211 0
-33.579521 -54.697521 -3.2634327 0
-33.15979 -54.634708 -3.24441 0
-32.825481 -54.636028 -3.2153008 0
-32.725594 -54.639622 -3.2025034 0
-32.655766 -54.608196 -3.2083554 0
-49.528057 -54.599045 -3.2571332 0
-33.319763 -54.523689 -3.2319794 0
-33.280708 -54.542458 -3.2334182 0
-32.860748 -54.546974 -3.2207894 0
-32.678638 -54.586056 -3.2075601 0
-48.919285 -54.429905 -3.2948141 0
-48.727852 -54.436012 -3.2043822 0
-34.32621 -54.426319 -3.2989752 0
-33.31604 -54.46917 -3.2372766 0
-32.867664 -54.475121 -3.2095399 0
-32.708847 -54.465553 -3.2147789 0
-49.459389 -54.300743 -3.2265451 0
-48.851467 -54.359016 -3.2018571 0
-48.5089 -54.305775 -3.2939711 0
-47.783386 -54.360359 -3.2515004 0
-34.009075 -54.38641 -3.2896097 0
-33.009644 -54.331997 -3.220037 0
-32.9697 -54.365768 -3.2232144 0
-49.776325 -54.245827 -3.2888491 0
-48.508465 -54.237328 -3.2809205 0
-48.003185 -54.288082 -3.2730198 0
-34.114578 -54.222233 -3.2925563 0
-33.522465 -54.243011 -3.2443993 0
-33.379429 -54.294903 -3.2561543 0
-33.0452 -54.276047 -3.224122 0
-32.720551 -54.207371 -3.2274237 0
-32.667236 -54.273952 -3.224381 0
-32.520672 -54.21307 -3.2014182 0
-49.544781 -54.100056 -3.2058172 0
-49.446587 -54.139137 -3.2558951 0
-49.372997 -54.189533 -3.2563264 0
-48.348843 -54.133671 -3.2873175 0
-33.707146 -54.131172 -3.2613969 0
-33.652386 -54.12294 -3.2583559 0
-33.43129 -54.181026 -3.2603624 0
-33.159882 -54.107269 -3.2203064 0
-33.081623 -54.130821 -3.2306452 0
-32.805096 -54.119171 -3.2327764 0
-32.764877 -54.16452 -3.2275083 0
-33.771553 -54.096489 -3.259681 0
-33.538189 -54.057026 -3.2643399 0
-33.47282 -54.072281 -3.249702 0
-33.285011 -54.087036 -3.2050207 0
-32.644028 -54.017792 -3.2087767 0
-49.765377 -53.984589 -3.2772458 0
-49.483696 -53.954212 -3.2419324 0
-49.241882 -53.9851 -3.2423751 0
-48.642918 -53.952164 -3.2499225 0
-33.854645 -53.973778 -3.2618768 0
-33.712341 -53.946388 -3.2584746 0
-33.540184 -53.950172 -3.2516994 0
-33.233536 -53.950035 -3.2286336 0
-32.687366 -53.962399 -3.2049756 0
-49.480312 -53.811474 -3.2655485 0
-49.122761 -53.879795 -3.2494004 0
-48.410496 -53.857117 -3.2441654 0
-33.032818 -53.800224 -3.2013862 0
-49.42379 -53.792992 -3.2421091 0
-48.890072 -53.759743 -3.2586501 0
-48.527042 -53.704563 -3.2614775 0
-33.879921 -53.752037 -3.2674663 0
-48.706345 -53.64502 -3.2562156 0
-33.155777 -53.603676 -3.2034495 0
-33.090889 -53.68074 -3.2048869 0
-49.260082 -53.559479 -3.2553809 0
-48.452942 -53.561214 -3.2185602 0
-48.527035 -53.446388 -3.2084384 0
-48.413857 -53.486752 -3.2106209 0
-33.235744 -53.413826 -3.2134006 0
-49.94244 -53.33279 -3.2726314 0
-49.24345 -53.343594 -3.2475381 0
-35.990139 -53.348877 -3.29614 0
-33.426331 -53.255474 -3.2614806 0
-32.601868 -53.276352 -3.2110612 0
-49.929161 -53.119419 -3.2985375 0
-48.916367 -53.11985 -3.2313218 0
-48.800247 -53.159519 -3.2025836 0
-48.698013 -53.178024 -3.2593169 0
-34.210728 -53.198395 -3.2909656 0
-33.498226 -53.15937 -3.2673619 0
-32.720913 -53.121948 -3.2215719 0
-32.652493 -53.189957 -3.214066 0
-32.142864 -53.134857 -3.2032409 0
-48.944176 -53.047478 -3.2352839 0
-36.471409 -53.020779 -3.2967403 0
-36.301495 -53.025146 -3.2872267 0
-33.590187 -53.040539 -3.2733653 0
-36.443748 -52.901802 -3.2899992 0
-36.053368 -52.964703 -3.2932758 0
-32.820724 -52.955933 -3.2223663 0
-48.916595 -52.866386 -3.2250447 0
-42.776985 -52.851883 -3.2913613 0
-36.178486 -52.834431 -3.2999039 0
-35.797009 -52.874199 -3.2963808 0
-34.155014 -52.8689 -3.2775366 0
-39.984238 -52.740936 -3.292901 0
-36.322601 -52.773663 -3.2838521 0
-35.992031 -52.700829 -3.2849433 0
-35.722221 -52.754715 -3.2678227 0
-33.765656 -52.797592 -3.2857308 0
-33.168404 -52.747391 -3.2344642 0
-32.502769 -52.785854 -3.2194822 0
-49.680061 -52.626572 -3.249299 0
-42.304768 -52.646347 -3.2865624 0
-42.246887 -52.618851 -3.287663 0
-42.156578 -52.62323 -3.2910235 0
-41.48801 -52.624668 -3.2958734 0
-39.95414 -52.666199 -3.2908261 0
-38.17564 -52.61097 -3.2879319 0
-38.037075 -52.612179 -3.2908061 0
-37.152664 -52.681301 -3.2880034 0
-36.303406 -52.610703 -3.2864616 0
-36.239708 -52.638493 -3.2844608 0
-36.141838 -52.647125 -3.2852495 0
-36.057381 -52.658726 -3.2906446 0
-34.111523 -52.653435 -3.2515507 0
-33.24334 -52.607567 -3.2379975 0
-49.554497 -52.51284 -3.2650301 0
-42.101055 -52.581646 -3.2803247 0
-42.017464 -52.53981 -3.2876627 0
-41.93639 -52.548145 -3.2911994 0
-41.832172 -52.556965 -3.2856679 0
-41.785145 -52.577374 -3.2826207 0
-41.60376 -52.540539 -3.2894483 0
-41.249561 -52.560711 -3.2944472 0
-40.81786 -52.587719 -3.2984931 0
-40.753315 -52.558956 -3.2966204 0
-40.669147 -52.515793 -3.2883611 0
-40.559982 -52.524689 -3.2943804 0
-40.412308 -52.516487 -3.2968657 0
-39.731594 -52.553982 -3.2884631 0
-39.362949 -52.56398 -3.2976389 0
-39.278728 -52.500496 -3.2825947 0
-38.451103 -52.503529 -3.2844 0
-38.087921 -52.586117 -3.2915883 0
-37.845932 -52.597073 -3.2959588 0
-37.152447 -52.550667 -3.2757211 0
-37.005104 -52.563065 -3.2873831 0
-36.406029 -52.565521 -3.2897053 0
-35.639477 -52.579575 -3.2895966 0
-35.464615 -52.534767 -3.2821095 0
-34.251118 -52.515282 -3.2638621 0
-34.138039 -52.540886 -3.2485676 0
-34.05077 -52.548931 -3.2568989 0
-33.273895 -52.54995 -3.2390733 0
-33.042316 -52.587948 -3.2161226 0
-32.698788 -52.583786 -3.2307408 0
-49.615513 -52.481853 -3.289088 0
-48.751549 -52.451637 -3.2333519 0
-43.363651 -52.401146 -3.2870784 0
-43.08493 -52.406872 -3.2956622 0
-42.832684 -52.472668 -3.2775381 0
-42.791603 -52.496513 -3.2975395 0
-42.592365 -52.461205 -3.2956464 0
-42.377716 -52.425579 -3.2800524 0
-41.834782 -52.466156 -3.2725725 0
-41.745598 -52.445263 -3.2760141 0
-41.618889 -52.428627 -3.2736795 0
-41.583588 -52.456425 -3.2756846 0
-41.167721 -52.48793 -3.2817028 0
-40.723793 -52.467743 -3.2895703 0
-40.656002 -52.457249 -3.286063 0
-40.593838 -52.401955 -3.2728605 0
-40.417179 -52.463642 -3.294697 0
-40.328506 -52.482964 -3.2901211 0
-40.256283 -52.450771 -3.2890756 0
-40.119488 -52.446697 -3.2965038 0
-39.568909 -52.402859 -3.2970643 0
-38.936771 -52.438347 -3.2928848 0
-38.809521 -52.408607 -3.2887049 0
-38.763573 -52.40313 -3.2900987 0
-38.65921 -52.438019 -3.2896061 0
-38.566147 -52.409618 -3.2837737 0
-38.469124 -52.459743 -3.2872753 0
-38.332924 -52.439346 -3.2784557 0
-38.209999 -52.425034 -3.2783566 0
-38.188587 -52.410572 -3.2824996 0
-37.976555 -52.42318 -3.2735248 0
-37.725327 -52.403316 -3.2802978 0
-37.510567 -52.437428 -3.294421 0
-37.495571 -52.436768 -3.2814939 0
-37.313431 -52.465263 -3.2817457 0
-37.219681 -52.484165 -3.2804332 0
-37.074154 -52.481884 -3.266901 0
-36.91864 -52.464142 -3.2673731 0
-36.850227 -52.448212 -3.2654996 0
-36.688187 -52.429886 -3.2747006 0
-36.584015 -52.401894 -3.2880242 0
-36.138672 -52.494537 -3.2876809 0
-35.907757 -52.490101 -3.2595229 0
-35.846275 -52.499687 -3.288806 0
-33.352966 -52.410786 -3.2426085 0
-49.484936 -52.334248 -3.280447 0
-43.851608 -52.348335 -3.2944739 0
-43.304497 -52.31366 -3.2828598 0
-42.939873 -52.386269 -3.2804844 0
-42.873119 -52.310425 -3.2783575 0
-41.826515 -52.392971 -3.2700212 0
-41.767479 -52.35463 -3.260828 0
-41.657162 -52.343491 -3.261481 0
-41.53458 -52.375195 -3.2747145 0
-41.456284 -52.361828 -3.276324 0
-41.373623 -52.348061 -3.2673314 0
-41.250607 -52.335766 -3.2652395 0
-41.138138 -52.325348 -3.2727299 0
-41.09882 -52.379364 -3.2743134 0
-40.613983 -52.368851 -3.2811265 0
-40.534195 -52.32732 -3.2720637 0
-40.115692 -52.366722 -3.2869043 0
-40.057343 -52.340324 -3.2875404 0
-39.970596 -52.349808 -3.2901258 0
-39.826683 -52.300331 -3.2739241 0
-39.766476 -52.346718 -3.2875471 0
-39.648598 -52.340401 -3.286957 0
-39.563271 -52.350666 -3.2836633 0
-39.235493 -52.316864 -3.2748642 0
-39.179016 -52.360237 -3.2754464 0
-39.052452 -52.37661 -3.2856729 0
-38.917591 -52.37014 -3.2885833 0
-38.864441 -52.335522 -3.2775822 0
-38.598064 -52.350052 -3.2804811 0
-38.452438 -52.386509 -3.2935691 0
-38.275906 -52.331238 -3.2552719 0
-38.030205 -52.388706 -3.2808981 0
-37.867867 -52.398602 -3.2789912 0
-37.796642 -52.397511 -3.2759521 0
-37.64727 -52.395844 -3.277915 0
-37.525806 -52.372372 -3.2794192 0
-37.426094 -52.356792 -3.2801495 0
-37.397141 -52.312851 -3.268841 0
-37.246521 -52.36451 -3.2647943 0
-36.866043 -52.355957 -3.2433929 0
-36.786411 -52.312153 -3.2432048 0
-36.051266 -52.312103 -3.2633524 0
-35.543793 -52.330212 -3.2619998 0
-34.301945 -52.324825 -3.2222915 0
-34.257046 -52.335663 -3.2512236 0
-34.006294 -52.344772 -3.2236824 0
-33.898914 -52.365582 -3.237231 0
-33.389561 -52.350903 -3.2401779 0
-43.571529 -52.286018 -3.2740896 0
-43.361198 -52.26001 -3.2673712 0
-43.198936 -52.243359 -3.273561 0
-42.754852 -52.250885 -3.2756464 0
-42.129856 -52.214268 -3.2800152 0
-41.80653 -52.223747 -3.2711325 0
-41.771858 -52.285213 -3.2600446 0
-41.611641 -52.204121 -3.2528045 0
-41.467754 -52.254028 -3.259593 0
-41.147213 -52.214157 -3.2603073 0
-41.057545 -52.247398 -3.2648449 0
-40.85873 -52.248302 -3.2623749 0
-40.527626 -52.247627 -3.2707467 0
-40.415073 -52.206551 -3.2564054 0
-40.146324 -52.24263 -3.2796445 0
-40.047409 -52.227802 -3.2684917 0
-39.967506 -52.26767 -3.2665925 0
-39.803524 -52.281895 -3.2634616 0
-39.733231 -52.26479 -3.2773161 0
-39.696785 -52.263004 -3.2794962 0
-39.513229 -52.278076 -3.2849689 0
-39.432053 -52.261017 -3.2864838 0
-39.360229 -52.251495 -3.2819104 0
-39.245167 -52.286747 -3.2856536 0
-39.166885 -52.235718 -3.2700567 0
-38.825439 -52.235474 -3.2748609 0
-38.25032 -52.245911 -3.2451181 0
-37.52602 -52.207199 -3.2678678 0
-37.44981 -52.21698 -3.2468107 0
-37.236481 -52.259819 -3.2495649 0
-36.830269 -52.277138 -3.2309074 0
-36.771542 -52.246677 -3.2269287 0
-36.694592 -52.21999 -3.2471812 0
-36.279045 -52.287102 -3.2520077 0
-36.030937 -52.225918 -3.2321501 0
-35.776249 -52.299091 -3.2698026 0
-35.379776 -52.286739 -3.2565362 0
-34.21701 -52.245911 -3.2392876 0
-33.731365 -52.219234 -3.2013102 0
-33.640556 -52.22821 -3.2149334 0
-33.525116 -52.246876 -3.2309763 0
-33.414249 -52.273605 -3.2482989 0
-49.668217 -52.194466 -3.2125049 0
-49.531231 -52.110199 -3.208302 0
-43.860573 -52.139725 -3.2851095 0
-43.243565 -52.15984 -3.259578 0
-43.083988 -52.157646 -3.2550666 0
-42.669132 -52.128201 -3.2678947 0
-42.585781 -52.142792 -3.2986026 0
-42.312801 -52.120041 -3.253907 0
-42.129341 -52.116055 -3.2361436 0
-42.048073 -52.160919 -3.2622175 0
-41.900242 -52.119904 -3.2865014 0
-41.679886 -52.159595 -3.2728314 0
-41.420422 -52.152557 -3.2546115 0
-41.34515 -52.153549 -3.2466063 0
-41.263214 -52.146496 -3.248457 0
-41.143959 -52.15229 -3.2544506 0
-41.04071 -52.166882 -3.2524455 0
-40.966248 -52.131721 -3.2492137 0
-40.669456 -52.106068 -3.2325506 0
-40.537605 -52.17083 -3.2650731 0
-40.448402 -52.153648 -3.2664135 0
-40.347534 -52.164585 -3.2589872 0
-40.25919 -52.132385 -3.2545745 0
-39.966827 -52.114815 -3.2385764 0
-39.861137 -52.179012 -3.2627928 0
-39.532867 -52.176315 -3.2610888 0
-39.423058 -52.160446 -3.2623222 0
-39.372131 -52.159584 -3.2489357 0
-39.246136 -52.129597 -3.261817 0
-39.155689 -52.155514 -3.2687328 0
-39.065834 -52.1819 -3.2514017 0
-38.747105 -52.138111 -3.266757 0
-38.625149 -52.102139 -3.2559969 0
-38.411221 -52.182495 -3.2494321 0
-38.329342 -52.158775 -3.2499619 0
-38.226788 -52.163635 -3.2454538 0
-38.169243 -52.148193 -3.2504144 0
-38.095173 -52.12862 -3.2480514 0
-37.953281 -52.198746 -3.2462995 0
-37.853634 -52.167927 -3.2660961 0
-37.705341 -52.179058 -3.2671781 0
-37.328659 -52.163395 -3.2552161 0
-37.297371 -52.115543 -3.2562578 0
-36.747662 -52.149872 -3.2291324 0
-35.965668 -52.136551 -3.2439549 0
-35.818768 -52.151348 -3.2392094 0
-35.768341 -52.120064 -3.2658992 0
-35.576721 -52.137669 -3.2582061 0
-34.207684 -52.16283 -3.2345684 0
-34.198589 -52.1138 -3.2316723 0
-32.715858 -52.107327 -3.2017987 0
-49.61953 -52.067745 -3.2378376 0
-43.888302 -52.051517 -3.2958004 0
-43.1959 -52.065201 -3.255348 0
-43.003174 -52.093319 -3.2600086 0
-42.646164 -52.051647 -3.2626276 0
-42.552227 -52.030907 -3.272681 0
-42.440475 -52.082951 -3.2570133 0
-42.312546 -52.058929 -3.2425621 0
-42.233013 -52.053268 -3.2409568 0
-42.131519 -52.072052 -3.2264678 0
-41.979073 -52.014183 -3.2432823 0
-41.848629 -52.078606 -3.2795732 0
-41.729652 -52.041683 -3.284848 0
-41.411911 -52.037361 -3.2302291 0
-41.316341 -52.050552 -3.2340078 0
-41.241478 -52.044941 -3.2314913 0
-41.134727 -52.052628 -3.2357602 0
-40.94112 -52.038006 -3.2347546 0
-40.851067 -52.068989 -3.238122 0
-40.74445 -52.040146 -3.2456226 0
-40.611431 -52.03289 -3.233016 0
-40.554466 -52.052681 -3.2370484 0
-40.422245 -52.00037 -3.238251 0
-40.332592 -52.053082 -3.2392139 0
-40.24617 -52.04475 -3.2415972 0
-40.031296 -52.030354 -3.2405097 0
-39.822708 -52.050007 -3.2449741 0
-39.75528 -52.028595 -3.2543733 0
-39.633057 -52.051239 -3.2513471 0
-39.587528 -52.025276 -3.2483695 0
-39.29277 -52.060337 -3.2535956 0
-39.182922 -52.070053 -3.2557969 0
-39.032288 -52.028992 -3.2584872 0
-38.968258 -52.016434 -3.2555766 0
-38.832481 -52.040161 -3.2504625 0
-38.657246 -52.046352 -3.2493918 0
-38.469894 -52.008415 -3.2352238 0
-38.31308 -52.005978 -3.2337284 0
-38.149948 -52.027489 -3.2458742 0
-38.065033 -52.012253 -3.2214117 0
-37.179424 -52.027523 -3.230787 0
-37.026676 -52.02618 -3.2137203 0
-36.969528 -52.046604 -3.211159 0
-36.823635 -52.07909 -3.2196734 0
-36.763275 -52.044868 -3.2223349 0
-36.624187 -52.010311 -3.2160754 0
-36.543793 -52.032227 -3.2149329 0
-36.431622 -52.021988 -3.2174914 0
-36.011452 -52.071774 -3.2606525 0
-35.969017 -52.045036 -3.2475383 0
-35.026661 -52.021824 -3.2310936 0
-34.494274 -52.00491 -3.2311022 0
-49.564251 -51.920376 -3.293736 0
-48.970955 -51.985256 -3.2324352 0
-44.080734 -51.989456 -3.2668021 0
-43.62249 -51.934071 -3.2650969 0
-43.459942 -51.960827 -3.2561021 0
-43.134415 -51.942764 -3.2433741 0
-43.059067 -51.922543 -3.2346966 0
-42.995438 -51.979294 -3.2588158 0
-42.859177 -51.932571 -3.2514844 0
-42.763409 -51.956154 -3.2506969 0
-42.542847 -51.961189 -3.2503624 0
-42.372925 -51.953438 -3.249351 0
-42.216141 -51.991104 -3.2373314 0
-42.140549 -51.947189 -3.235254 0
-42.022964 -51.932652 -3.2315598 0
-41.921349 -51.961292 -3.2520447 0
-41.849934 -51.945232 -3.2420857 0
-41.746719 -51.928257 -3.2664089 0
-41.647869 -51.968948 -3.2721198 0
-41.468849 -51.942791 -3.2308466 0
-41.374756 -51.974888 -3.2265465 0
-41.248688 -51.962273 -3.2264402 0
-41.058826 -51.933472 -3.2221997 0
-40.959053 -51.97963 -3.2318418 0
-40.832218 -51.965363 -3.2327936 0
-40.649345 -51.932487 -3.2086127 0
-40.532402 -51.968109 -3.2357671 0
-40.32893 -51.986542 -3.2197905 0
-40.253246 -51.975952 -3.2312298 0
-40.12978 -51.992199 -3.2359447 0
-40.046326 -51.949802 -3.2183254 0
-39.943241 -51.997818 -3.2374718 0
-39.837883 -51.956112 -3.2410955 0
-39.763706 -51.949818 -3.246001 0
-39.679276 -51.946907 -3.2403646 0
-39.511787 -51.967453 -3.2398176 0
-39.47522 -51.903336 -3.2368925 0
-39.362873 -51.947266 -3.2519588 0
-39.234238 -51.973324 -3.2220905 0
-39.188591 -51.96257 -3.2569232 0
-39.071709 -51.949165 -3.2575457 0
-38.959385 -51.971481 -3.2465103 0
-38.836277 -51.957928 -3.2394722 0
-38.557751 -51.951015 -3.2449996 0
-38.258141 -51.990726 -3.2281418 0
-38.174435 -51.97205 -3.2330332 0
-38.038288 -51.943592 -3.2258751 0
-37.946533 -51.96154 -3.2284746 0
-37.734261 -51.973907 -3.2215846 0
-37.675034 -51.91066 -3.2116473 0
-37.594227 -51.910496 -3.228641 0
-37.351589 -51.95649 -3.2205615 0
-37.237438 -51.95491 -3.2231233 0
-37.136292 -51.950798 -3.2222388 0
-37.006695 -51.969604 -3.2083249 0
-36.815083 -51.968708 -3.2124045 0
-36.761082 -51.952988 -3.2242546 0
-36.628487 -51.942924 -3.2212481 0
-36.430767 -51.972878 -3.2236223 0
-36.111862 -51.981941 -3.2260549 0
-36.054592 -51.99369 -3.2263863 0
-35.941956 -51.97319 -3.2401574 0
-35.704861 -51.928547 -3.2468951 0
-35.558376 -51.935009 -3.2497745 0
-35.103962 -51.935898 -3.2370884 0
-35.050041 -51.983284 -3.2376368 0
-34.536682 -51.944595 -3.2327988 0
-33.838066 -51.959148 -3.2135973 0
-33.653545 -51.926914 -3.2079873 0
-49.728561 -51.875629 -3.221595 0
-49.523026 -51.804626 -3.2164478 0
-49.230167 -51.816669 -3.2776983 0
-44.307732 -51.899548 -3.2986996 0
-44.185326 -51.850159 -3.2980003 0
-43.995396 -51.834339 -3.2909279 0
-43.823277 -51.816124 -3.2824302 0
-43.610901 -51.816437 -3.2525072 0
-43.533878 -51.851475 -3.2605104 0
-43.375843 -51.846859 -3.2474582 0
-43.141636 -51.865452 -3.2479918 0
-43.048332 -51.880955 -3.2407022 0
-42.797539 -51.856369 -3.2471824 0
-42.607006 -51.853008 -3.2387586 0
-42.589645 -51.845345 -3.2271914 0
-42.447758 -51.885197 -3.2348356 0
-42.156433 -51.863781 -3.2216218 0
-42.082962 -51.80608 -3.2193229 0
-41.748436 -51.878708 -3.2320237 0
-41.665138 -51.880737 -3.2456121 0
-41.437614 -51.843399 -3.2170379 0
-41.045681 -51.835567 -3.2250445 0
-40.80442 -51.885899 -3.2265489 0
-40.623405 -51.817776 -3.2006567 0
-40.577282 -51.878204 -3.207984 0
-40.323441 -51.848183 -3.2100081 0
-40.217545 -51.85437 -3.2171116 0
-40.028522 -51.843597 -3.211026 0
-39.950897 -51.857994 -3.2084179 0
-39.855145 -51.855232 -3.2213089 0
-39.640369 -51.858997 -3.231128 0
-39.59668 -51.853516 -3.2304688 0
-39.40731 -51.858154 -3.2318184 0
-39.176994 -51.824329 -3.2185361 0
-38.917603 -51.875534 -3.2365916 0
-38.807674 -51.812355 -3.2275321 0
-38.777782 -51.824322 -3.2272103 0
-38.441006 -51.898041 -3.2285416 0
-38.105507 -51.800644 -3.207896 0
-38.047119 -51.864563 -3.2082093 0
-37.97776 -51.810631 -3.2272069 0
-37.640289 -51.859734 -3.2072718 0
-37.555092 -51.892281 -3.2320175 0
-37.494518 -51.880825 -3.2344496 0
-36.876434 -51.801701 -3.2036552 0
-36.787441 -51.897091 -3.2108786 0
-36.696636 -51.898724 -3.239084 0
-36.215187 -51.802864 -3.213685 0
-36.15152 -51.851822 -3.2102022 0
-36.038406 -51.837063 -3.2112224 0
-35.863079 -51.841106 -3.2286773 0
-35.725292 -51.829144 -3.2204752 0
-35.051823 -51.80896 -3.2280419 0
-34.629025 -51.830265 -3.2415304 0
-34.590553 -51.869984 -3.2374597 0
-33.92942 -51.848938 -3.2106531 0
-33.858505 -51.873993 -3.2229097 0
-49.524799 -51.754086 -3.2951381 0
-44.349537 -51.777023 -3.2888482 0
-44.036491 -51.771141 -3.2782211 0
-43.948654 -51.771645 -3.2778251 0
-43.508099 -51.761417 -3.2516816 0
-43.31057 -51.761292 -3.251802 0
-43.262188 -51.725258 -3.2412381 0
-43.196178 -51.73484 -3.2583768 0
-42.853031 -51.759819 -3.2406611 0
-42.465038 -51.761013 -3.2137904 0
-42.390209 -51.773972 -3.212646 0
-42.261524 -51.777252 -3.2104685 0
-42.160889 -51.721687 -3.2095461 0
-42.03294 -51.743393 -3.2108855 0
-41.826542 -51.728966 -3.2039137 0
-41.625088 -51.71571 -3.2148085 0
-41.422024 -51.736973 -3.212507 0
-41.313763 -51.707554 -3.2136059 0
-40.547691 -51.776138 -3.2179446 0
-40.204166 -51.795704 -3.2006838 0
-40.0854 -51.79372 -3.2163401 0
-39.939873 -51.759377 -3.2045016 0
-39.83353 -51.743687 -3.2090368 0
-39.729568 -51.703506 -3.2120297 0
-39.622185 -51.740875 -3.2009182 0
-39.573849 -51.768295 -3.2244709 0
-39.449833 -51.73481 -3.2249379 0
-39.357834 -51.713589 -3.2217047 0
-39.25375 -51.760853 -3.2238662 0
-39.118885 -51.761761 -3.223856 0
-39.058273 -51.728909 -3.2199614 0
-38.940426 -51.786266 -3.2271779 0
-38.837788 -51.755398 -3.212687 0
-38.758289 -51.767353 -3.2224166 0
-38.370598 -51.716076 -3.2025559 0
-38.274853 -51.76265 -3.2051303 0
-38.011932 -51.708351 -3.2056723 0
-37.904274 -51.736057 -3.2162609 0
-37.83577 -51.711807 -3.204577 0
-37.730286 -51.735336 -3.2097938 0
-37.554085 -51.787922 -3.2097864 0
-37.422478 -51.747574 -3.2201905 0
-37.336079 -51.703758 -3.2099082 0
-37.191124 -51.735538 -3.2079816 0
-37.043221 -51.742138 -3.2097044 0
-36.727928 -51.759132 -3.2117224 0
-36.657211 -51.716583 -3.2147591 0
-36.374313 -51.771595 -3.2108932 0
-36.289452 -51.778587 -3.2154133 0
-35.752388 -51.745888 -3.2212818 0
-35.663471 -51.748749 -3.2379119 0
-35.455841 -51.715485 -3.235817 0
-35.349766 -51.730423 -3.2318783 0
-35.291164 -51.769131 -3.2404013 0
-35.147343 -51.742626 -3.2328243 0
-34.716057 -51.716335 -3.2153897 0
-34.676125 -51.76157 -3.2148697 0
-34.03941 -51.79361 -3.2008257 0
-33.977283 -51.794979 -3.2088027 0
-49.52142 -51.685619 -3.2008007 0
-49.494183 -51.661606 -3.2097931 0
-44.66423 -51.616024 -3.2971668 0
-44.226334 -51.692955 -3.2798038 0
-44.053314 -51.649525 -3.2645869 0
-43.735813 -51.613045 -3.2470076 0
-43.656635 -51.644901 -3.2483099 0
-43.155586 -51.651051 -3.2291536 0
-42.901794 -51.644886 -3.2453222 0
-42.872421 -51.635956 -3.212214 0
-42.361176 -51.618034 -3.2096415 0
-42.024513 -51.686813 -3.2128451 0
-41.982521 -51.682278 -3.2048774 0
-41.462109 -51.656017 -3.2089252 0
-41.203163 -51.619926 -3.2023962 0
-40.474819 -51.69582 -3.2025225 0
-39.923115 -51.629471 -3.2056751 0
-39.737854 -51.620457 -3.2075477 0
-39.377769 -51.685474 -3.2203891 0
-39.178795 -51.698208 -3.2125177 0
-39.042812 -51.65403 -3.2102275 0
-38.935829 -51.637875 -3.2132418 0
-38.684765 -51.608395 -3.2074544 0
-38.425571 -51.604496 -3.2019603 0
-38.294815 -51.642414 -3.2003899 0
-37.97369 -51.68911 -3.2078764 0
-36.585743 -51.692837 -3.2015195 0
-35.824455 -51.661636 -3.2364469 0
-35.749027 -51.658981 -3.2181747 0
-35.632484 -51.606613 -3.2237172 0
-35.547924 -51.640778 -3.2274106 0
-35.459244 -51.675102 -3.2335155 0
-44.246017 -51.539665 -3.2498221 0
-44.176102 -51.527374 -3.2514811 0
-44.022892 -51.589859 -3.2616096 0
-43.91214 -51.555779 -3.2640419 0
-43.851093 -51.565731 -3.2496438 0
-43.648609 -51.538872 -3.2278421 0
-43.539257 -51.504784 -3.2165208 0
-43.445164 -51.52721 -3.2369969 0
-43.391308 -51.55357 -3.2376146 0
-43.061035 -51.565838 -3.2309318 0
-42.233253 -51.548447 -3.2003553 0
-42.063721 -51.55986 -3.2080765 0
-41.362892 -51.59391 -3.2058756 0
-39.919838 -51.566147 -3.2062209 0
-39.883999 -51.56311 -3.202554 0
-39.268917 -51.56958 -3.2208977 0
-39.13427 -51.544254 -3.2019682 0
-38.885307 -51.534321 -3.208272 0
-38.730137 -51.519905 -3.2035127 0
-38.65435 -51.548454 -3.2031372 0
-38.59766 -51.564709 -3.2024372 0
-38.353661 -51.564625 -3.2033563 0
-35.834446 -51.534538 -3.2106428 0
-35.752296 -51.565269 -3.2202501 0
-35.6576 -51.57909 -3.2165709 0
-35.565933 -51.591938 -3.2315311 0
-35.474537 -51.5331 -3.2281153 0
-34.18206 -51.50259 -3.2012737 0
-49.486752 -51.493401 -3.2204499 0
-44.154434 -51.442966 -3.2664413 0
-44.058979 -51.400349 -3.2462702 0
-43.906067 -51.428982 -3.2531672 0
-43.531555 -51.48394 -3.2345338 0
-43.473759 -51.470367 -3.2246561 0
-43.392246 -51.414505 -3.2257242 0
-42.97781 -51.481651 -3.2079272 0
-42.196747 -51.49575 -3.2008111 0
-41.951092 -51.497147 -3.2019794 0
-41.239418 -51.499619 -3.2060618 0
-38.812698 -51.498688 -3.2032173 0
-37.319782 -51.46175 -3.2059128 0
-44.973232 -51.316154 -3.293786 0
-44.063633 -51.333073 -3.2555022 0
-43.358997 -51.339546 -3.2070701 0
-35.370205 -51.316109 -3.2052541 0
-49.64706 -51.280582 -3.2273967 0
-49.441555 -51.296921 -3.23558 0
-44.477577 -51.285202 -3.2846117 0
-44.362686 -51.217541 -3.2557385 0
-43.358395 -51.275257 -3.2094095 0
-43.184246 -51.258057 -3.2186894 0
-36.296852 -51.210674 -3.2144067 0
-49.651909 -51.188309 -3.2974477 0
-49.560978 -51.1464 -3.2911685 0
-44.678055 -51.106449 -3.2953627 0
-43.331821 -51.196384 -3.2034721 0
-44.71674 -51.020134 -3.2868791 0
-44.651844 -51.082325 -3.2861493 0
-49.69331 -50.947372 -3.2359824 0
-44.911732 -50.978436 -3.2899191 0
-44.311283 -50.967976 -3.2331877 0
-44.192539 -50.907757 -3.2265713 0
-49.939251 -50.898445 -3.2384353 0
-44.634727 -50.825005 -3.2533367 0
-44.915894 -50.732613 -3.2735548 0
-44.437283 -50.713108 -3.2391651 0
-44.20929 -50.701614 -3.211072 0
-44.954872 -50.616028 -3.2710841 0
-44.33783 -50.653027 -3.2302742 0
-44.130939 -50.637081 -3.2056699 0
-44.208614 -50.443661 -3.2067964 0
-45.30706 -50.333794 -3.2854216 0
