# .PCD v0.7 - Point Cloud Data file format
VERSION 0.7
FIELDS x y z intensity
SIZE 4 4 4 4
TYPE F F F F
COUNT 1 1 1 1
WIDTH 382
HEIGHT 1
VIEWPOINT 0 0 0 1 0 0 0
POINTS 382
DATA ascii
-35.912796 94.778824 -4.3102155 0
-31.317158 87.402679 -4.242352 0
-33.242023 86.154579 -4.1416492 0
-34.860855 93.852478 -4.1895442 0
-33.550541 92.807152 -4.0449409 0
34.800686 78.157852 -3.9270027 0
-4.7540741 64.43103 -3.8382127 0
-2.4154582 64.508537 -3.8551102 0
-5.1505947 64.976059 -3.8378537 0
-3.0509145 65.185059 -3.8527141 0
-3.8540375 65.438896 -3.8485408 0
-8.2095881 61.970978 -3.722337 0
-6.1944628 62.176929 -3.7609591 0
-8.8857965 63.403088 -3.7670283 0
-7.7668471 63.648079 -3.7690885 0
-8.4503241 63.817471 -3.7895336 0
-29.069738 97.997406 -3.7559946 0
-2.3181813 56.2953 -3.6073625 0
-2.8032804 56.43705 -3.6182408 0
-1.6325332 56.5979 -3.6217527 0
-1.585119 57.090729 -3.6500881 0
-7.8987675 57.395954 -3.6196561 0
-5.6291456 57.530991 -3.6148071 0
-0.079837888 57.611916 -3.6680512 0
0.016528327 57.813824 -3.6774085 0
-7.2149363 58.897949 -3.6057081 0
-6.0431771 59.987297 -3.6724594 0
-5.4734907 60.443268 -3.6955106 0
25.417763 62.928192 -3.622716 0
-3.5417986 68.740318 -3.6251297 0
-19.754028 69.386765 -3.6310744 0
-19.783903 69.599495 -3.6800599 0
-5.8523979 75.5243 -3.6888616 0
14.002584 95.357773 -3.6763961 0
-30.378113 96.599609 -3.6615915 0
-30.253607 96.852814 -3.6700504 0
-4.5162735 51.904556 -3.5155494 0
-3.6101792 52.356998 -3.527616 0
-7.1605816 54.100071 -3.5178146 0
-6.2154231 54.111984 -3.5254467 0
-7.2211933 54.408371 -3.5169821 0
-6.4490957 54.501312 -3.5385923 0
-5.1409993 54.729019 -3.5458858 0
-6.2353477 54.8568 -3.5397522 0
-5.4557409 55.123566 -3.5493009 0
-4.0303488 55.325809 -3.5678577 0
-4.0303693 55.669819 -3.5732934 0
-3.7502754 55.682606 -3.5700669 0
-8.90098 56.393959 -3.552711 0
-6.8632665 57.023094 -3.584542 0
-6.4685445 57.13625 -3.585583 0
-9.2719479 57.490852 -3.5837364 0
23.239902 57.530819 -3.5261018 0
-8.6555967 57.643929 -3.5409753 0
-8.4618902 57.771484 -3.5574675 0
-7.7959471 58.29879 -3.568032 0
-8.9476147 59.348206 -3.5841386 0
25.009089 63.19294 -3.5831635 0
-12.894238 63.641552 -3.5813408 0
-12.727962 63.645603 -3.5748479 0
-12.61544 63.636333 -3.5705495 0
-12.49551 63.672401 -3.5700624 0
-12.85661 63.759117 -3.5839498 0
-12.376178 63.70145 -3.5689671 0
-12.268461 63.721283 -3.5623989 0
-12.148762 63.796249 -3.5653932 0
-12.040154 63.907467 -3.5719826 0
-11.925264 64.011536 -3.5727091 0
-11.814521 64.274979 -3.5878081 0
-14.378089 64.394485 -3.5466173 0
-13.033671 64.300667 -3.5652792 0
-13.866211 64.533684 -3.5275011 0
-13.339663 64.699471 -3.5091 0
-10.484662 65.924072 -3.5483959 0
6.9139276 67.557335 -3.5217056 0
18.292059 67.712921 -3.5523775 0
-18.366472 68.232117 -3.5611844 0
-18.412443 68.481857 -3.531631 0
-18.691425 68.736778 -3.5239573 0
22.969091 85.541794 -3.5487175 0
8.0402012 87.006775 -3.5070164 0
20.072117 89.763954 -3.5628579 0
20.287104 89.766075 -3.5188015 0
8.6086903 50.028412 -3.4393687 0
9.3199549 50.28294 -3.4517698 0
3.4588144 51.585045 -3.4739637 0
-10.397513 58.359661 -3.4396305 0
-7.9298229 60.122574 -3.4154212 0
-12.497543 64.942093 -3.4752808 0
-11.958904 65.098236 -3.4605472 0
-16.435015 65.38131 -3.4914713 0
-16.592506 65.485313 -3.4824147 0
-16.48827 65.552063 -3.4827878 0
-16.373404 65.609009 -3.4767723 0
-15.897482 65.662895 -3.4573381 0
-15.776758 65.645592 -3.4498005 0
-15.344445 65.614296 -3.4571104 0
-11.2599 65.681808 -3.4670124 0
-16.25947 65.707787 -3.4793487 0
-16.140329 65.746819 -3.4766331 0
-16.022831 65.718834 -3.4683604 0
-15.662624 65.73732 -3.4517748 0
-16.265232 65.863091 -3.4134743 0
-14.250327 65.815598 -3.4203806 0
-15.558966 65.941933 -3.4587574 0
-15.434806 65.928253 -3.4513514 0
-15.317315 65.900269 -3.4430795 0
-15.202783 65.977913 -3.4438488 0
-15.07902 65.978317 -3.4376485 0
-14.955652 65.992821 -3.4326544 0
-14.594657 65.983131 -3.4136584 0
-14.835714 66.00367 -3.4275277 0
-14.726468 66.017708 -3.4232118 0
-14.482761 66.028969 -3.4118867 0
-14.358208 66.001213 -3.4032755 0
-14.240446 66.089531 -3.4047801 0
-15.735635 66.119469 -3.4046988 0
-14.13238 66.145821 -3.4040813 0
7.1433096 67.328697 -3.479059 0
-11.357278 67.956161 -3.4361739 0
-11.511852 68.213463 -3.4010143 0
-14.753569 68.352615 -3.4050732 0
-11.388244 68.454376 -3.4050264 0
-17.742044 68.551201 -3.4692779 0
-17.326368 68.766914 -3.4865365 0
-10.255089 68.76683 -3.4789867 0
-15.645521 68.850883 -3.4380548 0
-10.23352 68.875031 -3.4528854 0
-16.609426 68.991547 -3.4584429 0
-10.395934 68.952652 -3.4391587 0
-15.564194 69.068634 -3.4256086 0
-2.1672571 69.168625 -3.4150875 0
-16.587488 69.246651 -3.4629591 0
-3.4942629 69.271477 -3.4496181 0
-3.6401463 69.310074 -3.4593279 0
-15.181787 69.766571 -3.4286735 0
-10.503785 70.111031 -3.4213228 0
-16.476032 70.723778 -3.4117026 0
-17.482662 70.898445 -3.4448385 0
0.47006744 73.081718 -3.4074521 0
-10.686141 78.122772 -3.481055 0
10.46734 91.43808 -3.4404826 0
1.3576864 51.874023 -3.3424273 0
-0.51396114 52.664791 -3.3563795 0
-8.0274258 60.201389 -3.3790231 0
-15.736996 66.007446 -3.3969538 0
-13.138561 66.013496 -3.3826113 0
-11.989598 66.074898 -3.3898621 0
-15.220446 66.197357 -3.3909168 0
-14.004 66.107605 -3.3943968 0
-13.532494 66.193047 -3.3778505 0
-13.887082 66.217476 -3.3927348 0
-13.778029 66.238548 -3.3890224 0
-13.649595 66.206955 -3.3849163 0
-13.413999 66.246574 -3.3713663 0
-13.292404 66.324448 -3.3717985 0
-13.174444 66.405724 -3.3727019 0
-13.051073 66.420204 -3.3677094 0
-12.937799 66.416748 -3.3617179 0
-14.67179 66.565994 -3.3934083 0
-13.866549 66.52655 -3.3492155 0
-12.817446 66.530251 -3.360189 0
-12.701729 66.565636 -3.3573439 0
-12.578951 66.601242 -3.3541594 0
-12.118894 66.697823 -3.3832614 0
-13.3592 66.729309 -3.353508 0
-14.228587 66.860832 -3.3720083 0
-12.462748 66.86264 -3.3652925 0
-12.307091 66.873749 -3.3391576 0
-12.351056 66.91552 -3.3641248 0
-12.235816 67.328857 -3.3830752 0
-13.108708 67.416519 -3.3532202 0
-12.133298 67.453407 -3.3681631 0
-13.243942 67.533257 -3.3536296 0
-11.999729 67.594475 -3.3835068 0
-11.875097 67.690063 -3.3852789 0
-12.523995 67.725929 -3.3391771 0
-11.913398 67.70742 -3.3499813 0
-11.756537 67.750206 -3.3843758 0
-11.747497 67.897522 -3.3524013 0
-13.829281 67.942543 -3.3799045 0
-11.635514 67.965935 -3.3914235 0
-11.204372 67.913162 -3.3808258 0
-14.135331 68.088028 -3.3498285 0
-13.527654 68.878731 -3.3218513 0
-2.6704242 68.913345 -3.3782852 0
-14.51002 69.115295 -3.3858376 0
-3.8239677 69.129044 -3.3210106 0
-14.159235 69.823608 -3.3714879 0
-14.562426 69.997337 -3.3303404 0
-12.389935 69.954933 -3.307024 0
-12.675011 70.140305 -3.3051386 0
-11.476181 70.266441 -3.319248 0
-15.495351 70.436905 -3.3754857 0
-13.540288 70.40136 -3.3160152 0
-13.399086 70.496666 -3.3140819 0
-13.253779 70.462608 -3.3126855 0
-13.712184 70.527946 -3.3248441 0
-12.95977 70.580139 -3.3082192 0
-1.2558663 70.949463 -3.3490334 0
-9.9496956 71.169281 -3.3815119 0
16.335976 74.021782 -3.3005247 0
15.559961 74.633629 -3.3050232 0
24.144337 78.453857 -3.3466704 0
13.757309 78.763298 -3.3247082 0
19.646372 89.056473 -3.3805921 0
4.1485209 50.167397 -3.2301888 0
1.7449198 51.296253 -3.2910697 0
1.8173341 51.257065 -3.2195854 0
1.5456476 51.395557 -3.2791934 0
1.6246876 51.400101 -3.2282951 0
-0.79756516 52.69363 -3.2750401 0
-0.70112306 52.727146 -3.2651801 0
-0.83516246 53.059109 -3.2661819 0
-0.80166608 53.16996 -3.2854047 0
3.4740894 53.788448 -3.2093771 0
-7.1019568 59.749443 -3.222841 0
-10.492417 61.779491 -3.269165 0
25.333872 63.291355 -3.221179 0
25.207783 63.557327 -3.2419419 0
7.3890743 67.438011 -3.2532351 0
-2.7236493 68.584244 -3.2313495 0
-3.0180755 68.674034 -3.2366393 0
-13.59783 69.652504 -3.2928848 0
-18.874893 72.616844 -3.2477677 0
0.49223635 73.247452 -3.2205944 0
17.930342 76.427826 -3.2536771 0
14.105034 78.430672 -3.2185724 0
13.940527 78.515236 -3.2160723 0
4.2554345 80.179031 -3.2984786 0
3.9771304 50.215473 -3.1159554 0
3.6148894 50.787823 -3.1533613 0
18.430609 51.044083 -3.1282499 0
0.30261016 52.227985 -3.1701474 0
-0.86011696 52.889267 -3.1345713 0
-0.70392531 52.80637 -3.1453474 0
-0.96866131 53.033169 -3.1817746 0
3.4648674 54.055706 -3.1858296 0
12.560461 55.719891 -3.1147454 0
1.5375265 58.412979 -3.1086659 0
26.056122 62.628792 -3.1569927 0
-1.8971012 68.844406 -3.1868751 0
-1.9335757 69.752983 -3.1142206 0
-19.49892 71.775887 -3.1301081 0
15.615951 74.694855 -3.1969416 0
3.9270191 50.198635 -3.0687199 0
4.0913835 50.185043 -3.090152 0
3.7398982 50.371418 -3.0884635 0
18.541262 50.8993 -3.0587709 0
18.633572 50.966599 -3.0154889 0
1.8345314 51.144672 -3.0551805 0
2.3467174 51.164406 -3.0425076 0
1.7021203 51.392864 -3.0704472 0
0.89992648 51.843666 -3.0300744 0
0.53446937 52.05143 -3.049233 0
0.22853693 52.249733 -3.0518506 0
0.077524617 52.334587 -3.0841436 0
1.4413812 58.050648 -3.0088878 0
6.0969472 58.10136 -3.0310249 0
1.2406309 58.605518 -3.0648367 0
2.6004074 60.282009 -3.0274391 0
-10.800053 62.252232 -3.0870097 0
-10.774649 62.336311 -3.0148933 0
-2.8580346 68.728935 -3.0963218 0
38.043125 70.333893 -3.092896 0
3.5893457 50.355934 -2.9282441 0
3.9534321 50.369781 -2.9483702 0
3.4968863 50.6078 -2.975704 0
18.679205 50.850258 -2.9428375 0
18.554852 50.997799 -2.9614723 0
18.677652 51.139809 -2.9634697 0
1.3024774 51.56448 -2.9305854 0
1.4305739 51.542328 -2.9705071 0
0.94136238 51.816319 -2.9748943 0
-14.600661 55.841755 -2.9144716 0
-14.114398 56.251663 -2.9384098 0
6.787816 57.817066 -2.9049783 0
6.5220723 57.960075 -2.941797 0
8.8640718 59.846462 -2.9765413 0
2.4651976 60.439594 -2.9331832 0
-10.364222 62.193256 -2.9962237 0
-10.574433 62.316471 -2.9821935 0
-26.176559 65.671806 -2.9136083 0
-11.164548 71.872421 -2.9684327 0
2.1646855 51.11108 -2.8543351 0
6.6322932 57.932449 -2.8304782 0
-6.9280643 60.362709 -2.8698385 0
47.171436 61.778564 -2.8918042 0
21.884684 74.327393 -2.8256259 0
3.7137635 50.363407 -2.764837 0
3.8564615 50.364742 -2.7190924 0
18.799261 51.87323 -2.724369 0
8.0117903 57.056328 -2.7648695 0
7.8679714 57.342438 -2.7649264 0
7.7904205 57.466324 -2.7302177 0
-7.2990441 59.928059 -2.7431574 0
-7.0523906 59.976624 -2.7795653 0
4.0013409 50.195984 -2.6736882 0
3.7914002 50.966698 -2.6422627 0
2.28281 51.072765 -2.6602898 0
23.110353 51.516922 -2.6290491 0
11.359074 55.391712 -2.6911407 0
5.0448842 58.704475 -2.6470983 0
-7.6241946 59.907207 -2.6984012 0
19.201084 72.671074 -2.6992128 0
-0.29224551 52.629295 -2.5212724 0
-0.61281663 52.848705 -2.5849743 0
-0.84381491 52.978329 -2.5700202 0
-0.88039744 53.089058 -2.5654299 0
-1.3045557 53.210686 -2.5119729 0
0.34531829 55.650612 -2.5309067 0
6.7214317 57.824158 -2.533298 0
6.2569318 58.041286 -2.5598805 0
5.8366041 58.262054 -2.516362 0
5.5853734 58.375286 -2.5280704 0
4.0800519 59.380836 -2.5389614 0
18.176573 73.382576 -2.5051017 0
1.1907389 51.545521 -2.4654322 0
23.555532 51.51231 -2.4536681 0
-0.96217555 53.231373 -2.4326475 0
6.7749286 57.863487 -2.4529305 0
5.4524317 58.553558 -2.4879351 0
-11.199269 71.874123 -2.4332056 0
18.964478 72.941483 -2.4357634 0
18.717947 73.099548 -2.4616895 0
18.437134 73.218208 -2.482888 0
4.9271336 59.385971 -2.3913801 0
-0.34576544 52.822113 -2.2525613 0
4.3192129 59.394001 -2.1098347 0
7.5805197 61.018921 -2.1991839 0
6.8277311 61.277454 -2.1259937 0
6.5405989 61.354599 -2.1123927 0
6.4898663 61.422455 -2.1193066 0
6.5045552 61.402824 -2.1188471 0
-11.01261 79.127975 -2.199321 0
12.69825 59.272865 -2.0149138 0
6.9544582 61.149303 -2.0833979 0
7.0087643 61.108383 -2.0734797 0
6.5405736 61.549599 -2.0500624 0
6.0218821 61.827927 -2.0666873 0
-20.095333 65.583504 -2.0348091 0
-19.973425 65.63913 -2.03245 0
-19.89465 65.697571 -2.027374 0
6.3826089 50.552837 -1.8102895 0
-19.520609 65.933563 -1.6784955 0
-7.9647555 70.081924 -1.6118132 0
-12.183148 63.889381 -1.5431406 0
-19.5746 66.075005 -1.5584989 0
-10.214363 66.494705 -1.5832468 0
-10.186481 66.615463 -1.5731915 0
-11.05607 71.839272 -1.5155474 0
-12.303577 63.389194 -1.4371669 0
-11.966292 63.627071 -1.4743828 0
-20.254972 65.502541 -1.4046984 0
-11.696146 63.76989 -1.3579292 0
-20.392887 65.603729 -1.3163744 0
-10.016642 66.747047 -1.3141565 0
-8.1430826 70.08847 -1.3305324 0
-11.490477 71.979263 -1.3314916 0
-12.073562 63.583794 -1.2780912 0
-20.315079 65.429016 -1.2506818 0
-20.226189 65.523857 -1.2520308 0
-20.113016 65.623451 -1.2472644 0
-20.021227 65.72934 -1.244203 0
-19.922382 65.83548 -1.2407445 0
-19.826952 65.937973 -1.2372283 0
-19.726049 65.987373 -1.2346491 0
-11.202701 71.887924 -1.2396775 0
-20.342649 65.489464 -1.1866239 0
-20.226681 65.613609 -1.1698762 0
-20.085217 65.715263 -1.0913445 0
-19.981266 65.824715 -1.0869159 0
-20.030264 66.268951 -1.0747945 0
47.142281 50.746956 -0.95182544 0
-20.189774 65.507217 -0.97670788 0
-19.834002 65.887115 -0.91795141 0
47.383984 50.813286 -0.8766818 0
47.336868 50.959679 -0.73311538 0
-42.743099 51.957817 0.090124391 0
-42.807209 52.120777 0.019583445 0
-42.550934 52.184357 0.083804645 0
-32.024529 77.434181 4.4319258 0
