# .PCD v0.7 - Point Cloud Data file format
VERSION 0.7
FIELDS x y z intensity
SIZE 4 4 4 4
TYPE F F F F
COUNT 1 1 1 1
WIDTH 1379
HEIGHT 1
VIEWPOINT 0 0 0 1 0 0 0
POINTS 1379
DATA ascii
-143.23672 -8.7296486 -6.2708383 0
-143.1778 -8.7604694 -6.2511454 0
-147.02603 -8.6681633 -6.2988844 0
-146.86008 -8.6505709 -6.2991686 0
-146.13419 -8.6082954 -6.2834897 0
-146.04279 -8.6357431 -6.2953544 0
-145.72495 -8.6065292 -6.2836752 0
-145.64059 -8.6809216 -6.2900877 0
-145.36385 -8.6276007 -6.2755756 0
-145.25391 -8.6866179 -6.2786269 0
-144.96155 -8.6415615 -6.284328 0
-144.79932 -8.6553183 -6.2737036 0
-144.38802 -8.6230164 -6.2696133 0
-144.03671 -8.6241655 -6.2918363 0
-143.64197 -8.6031551 -6.264832 0
-143.32037 -8.6250305 -6.2877045 0
-143.17963 -8.665451 -6.2569404 0
-146.75111 -8.5697422 -6.2853765 0
-146.20383 -8.5525017 -6.2818422 0
-145.72525 -8.586483 -6.2789431 0
-145.42946 -8.5330563 -6.270515 0
-144.98256 -8.5762043 -6.2705441 0
-144.7325 -8.5856085 -6.2679405 0
-144.44987 -8.5165339 -6.2594619 0
-144.00421 -8.5154047 -6.2655358 0
-143.54852 -8.5723038 -6.2752194 0
-143.4341 -8.5861959 -6.2824259 0
-143.21881 -8.5699635 -6.275126 0
-143.18597 -8.5440884 -6.2487659 0
-146.88535 -8.4740486 -6.2871561 0
-146.5211 -8.4709635 -6.2915821 0
-146.33014 -8.4664726 -6.2866645 0
-146.26422 -8.4271545 -6.2892017 0
-146.15826 -8.475132 -6.2846508 0
-146.02051 -8.4405804 -6.2849846 0
-145.84988 -8.460062 -6.2719011 0
-145.28947 -8.4391365 -6.2639837 0
-145.17792 -8.4616528 -6.2779083 0
-144.86459 -8.4116802 -6.2604551 0
-144.57121 -8.4202995 -6.265389 0
-144.10167 -8.4699011 -6.2865663 0
-144.0618 -8.4480448 -6.2841449 0
-143.62941 -8.429966 -6.2837939 0
-143.45752 -8.424037 -6.2904134 0
-143.32802 -8.470542 -6.2998843 0
-143.22632 -8.4781189 -6.2750101 0
-143.19028 -8.4579802 -6.2367043 0
-147.08966 -8.3589249 -6.2912893 0
-146.97562 -8.3966522 -6.2878656 0
-146.62399 -8.3682537 -6.2845955 0
-146.46736 -8.3243904 -6.2762365 0
-146.27988 -8.3057289 -6.2799177 0
-146.16202 -8.361948 -6.2859449 0
-145.94673 -8.3395147 -6.2763939 0
-145.77792 -8.3444548 -6.2723222 0
-145.60045 -8.303277 -6.2645478 0
-145.59717 -8.3335056 -6.2661219 0
-145.48259 -8.3547707 -6.2610393 0
-145.36453 -8.3222466 -6.2734103 0
-145.21594 -8.3636465 -6.267909 0
-144.22533 -8.3366842 -6.2678418 0
-144.14835 -8.3066807 -6.2888441 0
-143.59976 -8.3231392 -6.2813001 0
-143.22702 -8.3573637 -6.2752624 0
-143.18011 -8.3476782 -6.231483 0
-147.25255 -8.2528801 -6.2938643 0
-146.7173 -8.2603769 -6.2831535 0
-146.5867 -8.2378168 -6.2710838 0
-146.30476 -8.2608376 -6.2804623 0
-146.03682 -8.2393866 -6.2695384 0
-145.96278 -8.2691755 -6.2766967 0
-145.89836 -8.2695408 -6.2674265 0
-145.63388 -8.2781887 -6.2649155 0
-145.39458 -8.2885399 -6.2484093 0
-144.74828 -8.2268744 -6.2601752 0
-144.69142 -8.286212 -6.2591257 0
-144.0631 -8.2306347 -6.2716269 0
-143.81226 -8.201561 -6.2793522 0
-143.62141 -8.263711 -6.2840519 0
-143.54797 -8.2644691 -6.2744241 0
-143.35245 -8.2476397 -6.2827744 0
-143.23581 -8.2814865 -6.2800684 0
-143.18037 -8.207819 -6.2389383 0
-147.35553 -8.1246595 -6.2951193 0
-147.24379 -8.199893 -6.2868857 0
-146.82964 -8.1006346 -6.2845192 0
-146.76866 -8.1779041 -6.2866111 0
-146.43643 -8.150526 -6.2745123 0
-146.399 -8.1362963 -6.2777381 0
-146.12082 -8.1540413 -6.2656932 0
-146.07469 -8.1825199 -6.268033 0
-145.91293 -8.1404352 -6.2626801 0
-145.82883 -8.1821938 -6.2613831 0
-145.74048 -8.1495819 -6.2616143 0
-145.62573 -8.1195326 -6.2678776 0
-145.59085 -8.1546373 -6.265461 0
-145.36119 -8.1302156 -6.2576494 0
-145.23831 -8.1205063 -6.2557569 0
-144.81721 -8.1482878 -6.2582588 0
-144.39413 -8.1249981 -6.2548881 0
-144.2948 -8.1196814 -6.2741418 0
-144.17151 -8.1773481 -6.2726068 0
-144.05299 -8.1947813 -6.28057 0
-143.90338 -8.1393232 -6.2786937 0
-143.84625 -8.1642818 -6.2831593 0
-143.66467 -8.1348534 -6.2843819 0
-143.33124 -8.1681042 -6.2793112 0
-143.28798 -8.1966982 -6.2841482 0
-147.46359 -8.0401154 -6.2932115 0
-146.81535 -8.0202637 -6.2705727 0
-146.77554 -8.065443 -6.2673049 0
-146.58441 -8.0961428 -6.2748923 0
-146.24663 -8.0721006 -6.2655249 0
-146.14113 -8.0188627 -6.244616 0
-146.09326 -8.0553169 -6.2736745 0
-145.77441 -8.046814 -6.2621846 0
-145.68056 -8.0856743 -6.2968035 0
-145.35168 -8.0642929 -6.2551155 0
-144.90265 -8.0559301 -6.2526746 0
-144.68428 -8.0376835 -6.2599015 0
-144.582 -8.0435991 -6.256063 0
-144.43579 -8.0623894 -6.2585526 0
-144.06422 -8.0458202 -6.2780113 0
-143.74141 -8.0903988 -6.272357 0
-143.20337 -8.0730305 -6.2973442 0
-143.17131 -8.0622902 -6.2498207 0
-147.63254 -7.9240227 -6.2913971 0
-147.53363 -7.9833584 -6.2921219 0
-146.96021 -7.9436536 -6.2725105 0
-146.77068 -7.9797721 -6.2733326 0
-146.5024 -7.9165683 -6.2610612 0
-146.40204 -7.9306307 -6.2430072 0
-146.36714 -7.9971466 -6.2606254 0
-146.14992 -7.9525628 -6.2674966 0
-145.83224 -7.9724245 -6.2635379 0
-145.45758 -7.9574022 -6.2550144 0
-145.07463 -7.9388218 -6.2572317 0
-144.91704 -7.9379549 -6.2608995 0
-144.41074 -7.9085298 -6.2667747 0
-144.37305 -7.9626899 -6.2634306 0
-144.14729 -7.948534 -6.2811251 0
-144.06299 -7.9293914 -6.2776308 0
-143.73627 -7.9543753 -6.2870932 0
-143.62053 -7.9587278 -6.2668476 0
-143.26326 -7.9681377 -6.2975225 0
-143.1499 -7.9558005 -6.23174 0
-147.76631 -7.8184133 -6.2940602 0
-147.04018 -7.8465705 -6.2736664 0
-146.95647 -7.8437757 -6.2782698 0
-146.89806 -7.8956532 -6.2760296 0
-146.70593 -7.80547 -6.2583265 0
-146.62111 -7.8506355 -6.267447 0
-146.57309 -7.8710938 -6.2564955 0
-146.40837 -7.8990259 -6.2594957 0
-145.96988 -7.8589983 -6.2565365 0
-145.53169 -7.8537645 -6.2497969 0
-145.46065 -7.8724413 -6.2536249 0
-145.31761 -7.8837132 -6.2531037 0
-144.90656 -7.8728728 -6.2497702 0
-144.85345 -7.8597836 -6.2642531 0
-144.58235 -7.8663507 -6.2593379 0
-144.45361 -7.8202486 -6.2642422 0
-144.33904 -7.8911543 -6.2657676 0
-143.97168 -7.8938551 -6.2726293 0
-147.14232 -7.7521319 -6.2741017 0
-147.05362 -7.7426152 -6.2717466 0
-146.83157 -7.7306008 -6.2583723 0
-146.77008 -7.7764816 -6.2423429 0
-146.60214 -7.7241173 -6.252449 0
-146.54842 -7.7711196 -6.2526145 0
-146.14827 -7.7492623 -6.2583551 0
-146.08841 -7.7795725 -6.2572012 0
-145.87086 -7.7317448 -6.2523608 0
-145.73398 -7.7659059 -6.2516093 0
-145.64067 -7.7700396 -6.246809 0
-145.29095 -7.700171 -6.2418809 0
-145.09363 -7.7816997 -6.246347 0
-144.05804 -7.7977715 -6.2763801 0
-143.54224 -7.7520914 -6.2675891 0
-143.21436 -7.7392263 -6.2757559 0
-143.19884 -7.7837448 -6.2706656 0
-148.09462 -7.6128855 -6.2981162 0
-147.32256 -7.6144619 -6.2651072 0
-147.23367 -7.6791573 -6.2718897 0
-147.19653 -7.6905684 -6.2778974 0
-147.06082 -7.6043391 -6.2581291 0
-146.92258 -7.6632876 -6.258183 0
-146.76822 -7.6535416 -6.2630577 0
-146.33698 -7.6157713 -6.2531662 0
-146.25714 -7.6559715 -6.2534237 0
-145.8275 -7.6204185 -6.242208 0
-145.76573 -7.6746097 -6.2441382 0
-145.4783 -7.618926 -6.2376704 0
-145.29634 -7.673223 -6.2412205 0
-144.98172 -7.6850934 -6.2503719 0
-144.75317 -7.6084962 -6.2428007 0
-144.53728 -7.6088586 -6.2540555 0
-144.41121 -7.6933656 -6.2673702 0
-144.33723 -7.6415224 -6.2564611 0
-143.94199 -7.6139927 -6.27247 0
-143.89685 -7.685699 -6.2644792 0
-143.74298 -7.6647053 -6.2698607 0
-143.42477 -7.6067858 -6.2847543 0
-143.12065 -7.6488714 -6.2282887 0
-148.23915 -7.5165873 -6.2998161 0
-148.19073 -7.5452189 -6.2978883 0
-147.42679 -7.5378628 -6.271101 0
-147.36235 -7.5692639 -6.2683849 0
-147.1467 -7.536551 -6.2617435 0
-147.05356 -7.5930982 -6.2577486 0
-146.87338 -7.5174956 -6.2572165 0
-146.7753 -7.5582318 -6.2494817 0
-146.52634 -7.5048556 -6.2458324 0
-146.44525 -7.5761385 -6.2466373 0
-146.2388 -7.56638 -6.2428722 0
-145.64021 -7.5234799 -6.2352591 0
-145.41486 -7.5544152 -6.2382445 0
-145.26532 -7.5729251 -6.2417345 0
-144.74869 -7.5775938 -6.2461138 0
-144.10843 -7.5791287 -6.2676558 0
-144.07486 -7.592382 -6.2720108 0
-143.83813 -7.5727277 -6.2737594 0
-143.72998 -7.5192342 -6.2721276 0
-143.43149 -7.5647111 -6.2804265 0
-143.35248 -7.5770812 -6.2676539 0
-148.18681 -7.4120069 -6.2982545 0
-147.61259 -7.4115005 -6.2818646 0
-147.52794 -7.450963 -6.2734146 0
-147.48657 -7.4874921 -6.2625794 0
-147.25589 -7.4417334 -6.2527971 0
-146.94244 -7.4118257 -6.2508917 0
-146.85324 -7.4752216 -6.2483826 0
-146.79147 -7.4149065 -6.2526684 0
-146.3526 -7.4444361 -6.2403169 0
-145.85211 -7.4266033 -6.2340112 0
-145.64253 -7.4114423 -6.2421679 0
-145.51987 -7.4443927 -6.2411995 0
-145.39233 -7.4686084 -6.2437944 0
-145.29716 -7.4975033 -6.2438097 0
-145.0667 -7.483223 -6.2541933 0
-144.86166 -7.4791741 -6.2381334 0
-144.64226 -7.4580655 -6.2523971 0
-144.10367 -7.4961166 -6.2634625 0
-144.0797 -7.4591193 -6.265573 0
-143.47794 -7.4346046 -6.2768507 0
-143.12943 -7.484271 -6.2081747 0
-147.71538 -7.3350124 -6.2605538 0
-147.62326 -7.3432312 -6.2695994 0
-147.58157 -7.3382506 -6.2696338 0
-147.46443 -7.3509054 -6.2640662 0
-147.37643 -7.3830385 -6.2622943 0
-147.10616 -7.353477 -6.2549419 0
-147.03447 -7.3854194 -6.2533674 0
-146.97665 -7.3779731 -6.2523212 0
-146.4332 -7.3813086 -6.2429619 0
-146.1261 -7.3872385 -6.2362156 0
-146.05914 -7.3348413 -6.2325001 0
-145.99281 -7.3253541 -6.2403831 0
-145.85938 -7.3422956 -6.2370739 0
-145.74777 -7.3726554 -6.2427177 0
-145.69298 -7.3599524 -6.2402406 0
-145.42992 -7.3343916 -6.2652364 0
-144.843 -7.3749866 -6.2412367 0
-144.64326 -7.383666 -6.2549767 0
-144.42885 -7.3221297 -6.2388372 0
-143.55472 -7.314095 -6.27075 0
-143.21294 -7.3566046 -6.2649269 0
-143.13301 -7.3557444 -6.2290335 0
-148.45026 -7.2140226 -6.2997279 0
-147.93617 -7.2153478 -6.2821755 0
-147.83002 -7.2402897 -6.2752423 0
-147.76004 -7.2648001 -6.2661772 0
-147.67044 -7.2744389 -6.274282 0
-147.57921 -7.2243662 -6.2578154 0
-147.43875 -7.2072272 -6.2570429 0
-147.35635 -7.2537098 -6.2544041 0
-147.26942 -7.2900119 -6.2527075 0
-147.12283 -7.2471709 -6.2464466 0
-147.06572 -7.2869258 -6.2517776 0
-146.56175 -7.2400475 -6.2388811 0
-146.30013 -7.2117786 -6.229856 0
-146.21973 -7.2535877 -6.2347775 0
-146.10799 -7.2916431 -6.2402606 0
-145.95181 -7.2500062 -6.2367263 0
-145.53435 -7.210681 -6.2411284 0
-145.02551 -7.2675238 -6.2303486 0
-144.97922 -7.2978106 -6.2342014 0
-144.53857 -7.2379842 -6.2370043 0
-143.52516 -7.2462721 -6.2498097 0
-143.15353 -7.2347245 -6.2421098 0
-143.08434 -7.2550216 -6.2167377 0
-148.03429 -7.1570559 -6.2836881 0
-147.92075 -7.1348305 -6.2706237 0
-147.84099 -7.1560636 -6.2727928 0
-147.61761 -7.1348639 -6.2603092 0
-147.52592 -7.1659541 -6.2591505 0
-147.24432 -7.1057568 -6.2503638 0
-146.96913 -7.190474 -6.2433124 0
-146.77846 -7.1238909 -6.2371068 0
-146.65683 -7.1579275 -6.2344041 0
-146.49409 -7.1977053 -6.2385974 0
-146.38614 -7.1491485 -6.2369432 0
-146.26392 -7.1111574 -6.2321472 0
-146.11775 -7.1773477 -6.2360816 0
-145.94818 -7.1829996 -6.22786 0
-145.86557 -7.1514907 -6.2182846 0
-145.604 -7.1748447 -6.2375107 0
-145.56409 -7.190052 -6.237237 0
-145.23137 -7.1312227 -6.2286887 0
-144.84183 -7.155488 -6.237431 0
-144.64828 -7.1538277 -6.2351751 0
-144.41699 -7.178637 -6.240602 0
-144.11977 -7.1490512 -6.256206 0
-143.72702 -7.167758 -6.2572341 0
-143.65318 -7.1487908 -6.254343 0
-143.1203 -7.1392689 -6.2003827 0
-143.08662 -7.174943 -6.2288394 0
-148.16824 -7.0476074 -6.2880144 0
-148.0462 -7.0506935 -6.2715144 0
-147.90326 -7.0572796 -6.2765827 0
-147.89311 -7.0587373 -6.2745471 0
-147.74896 -7.0604849 -6.2645206 0
-147.3649 -7.0383434 -6.2479239 0
-147.25992 -7.0573049 -6.2497735 0
-146.97409 -7.0310745 -6.2399058 0
-146.87874 -7.0800042 -6.2382302 0
-146.71112 -7.0590506 -6.2253132 0
-146.62271 -7.0604529 -6.2198782 0
-146.56548 -7.0870767 -6.2221265 0
-146.41061 -7.0494952 -6.2287107 0
-146.03217 -7.0474734 -6.2293835 0
-145.91246 -7.0915561 -6.2245874 0
-145.87291 -7.0175405 -6.2348037 0
-145.79312 -7.0579486 -6.2332506 0
-145.69119 -7.0121694 -6.2212787 0
-145.5912 -7.0419502 -6.2225513 0
-145.43573 -7.0645142 -6.2220054 0
-145.35535 -7.0673599 -6.2230005 0
-145.23413 -7.0207448 -6.2200413 0
-145.19432 -7.0561438 -6.2224426 0
-144.89525 -7.0680208 -6.2368202 0
-144.7673 -7.0750999 -6.2275486 0
-144.26086 -7.065516 -6.2369127 0
-143.93701 -7.0675225 -6.2509723 0
-143.75969 -7.0512137 -6.2577233 0
-143.55315 -7.0157375 -6.2473993 0
-143.15001 -7.0792613 -6.2404199 0
-143.09441 -7.0638771 -6.2386031 0
-148.27621 -6.9218783 -6.2794967 0
-148.1329 -6.9955807 -6.2741385 0
-148.02921 -6.9236455 -6.276288 0
-147.97412 -6.9862499 -6.2788792 0
-147.4669 -6.9217381 -6.2549191 0
-147.33096 -6.9592109 -6.2551222 0
-147.16493 -6.9232354 -6.244112 0
-146.84552 -6.9524107 -6.2250423 0
-146.76216 -6.9363103 -6.2269478 0
-146.08205 -6.9204025 -6.227941 0
-145.96251 -6.9740663 -6.2313304 0
-145.45505 -6.9489737 -6.2132592 0
-145.28195 -6.9397001 -6.2154245 0
-145.01193 -6.9091625 -6.2219319 0
-144.94872 -6.9800425 -6.2312331 0
-144.85764 -6.937387 -6.2232347 0
-144.66377 -6.9864049 -6.223845 0
-143.68587 -6.9075451 -6.2684956 0
-143.32713 -6.9413414 -6.2415786 0
-143.23692 -6.9427667 -6.2425709 0
-143.15294 -6.9855409 -6.2363591 0
-148.49922 -6.851481 -6.2930417 0
-148.31686 -6.8688402 -6.2682214 0
-148.12225 -6.8619823 -6.277585 0
-147.94659 -6.8594489 -6.2531724 0
-147.57729 -6.8581314 -6.2514687 0
-147.4514 -6.8196335 -6.2494922 0
-146.94237 -6.8159103 -6.219789 0
-146.87373 -6.8650255 -6.2200103 0
-146.78735 -6.8670306 -6.2203774 0
-146.65865 -6.8918467 -6.2104731 0
-146.59843 -6.8959923 -6.2110023 0
-146.23384 -6.848969 -6.2186069 0
-146.1601 -6.8760581 -6.2196407 0
-145.67984 -6.8593102 -6.2194991 0
-145.33479 -6.8220258 -6.2163644 0
-145.23413 -6.8411369 -6.2334266 0
-145.12608 -6.8763933 -6.2168665 0
-145.02948 -6.8748884 -6.2247515 0
-144.37721 -6.8490825 -6.2470217 0
-144.20221 -6.8136611 -6.2430263 0
-144.19574 -6.8450422 -6.2450085 0
-143.92549 -6.8145022 -6.2367592 0
-143.61717 -6.8074517 -6.2479086 0
-143.54683 -6.8493795 -6.2369757 0
-143.13937 -6.8778896 -6.2256594 0
-148.56342 -6.7999496 -6.2778215 0
-148.47095 -6.7227454 -6.2780566 0
-148.36987 -6.7913189 -6.278079 0
-148.2518 -6.7786002 -6.2769442 0
-147.71126 -6.7508917 -6.252502 0
-147.66814 -6.788074 -6.248661 0
-147.53424 -6.7525163 -6.2498479 0
-147.46118 -6.7785559 -6.2512321 0
-147.19937 -6.7315412 -6.2250066 0
-147.05412 -6.7397041 -6.2237983 0
-146.97861 -6.7820358 -6.224535 0
-146.85863 -6.7439842 -6.225718 0
-146.45041 -6.7366362 -6.2171755 0
-146.32433 -6.7680216 -6.2162352 0
-145.86884 -6.7506723 -6.2157307 0
-145.72705 -6.7083778 -6.2113228 0
-145.44783 -6.7475815 -6.2122626 0
-145.12907 -6.7117133 -6.2251573 0
-145.09525 -6.7782063 -6.2230353 0
-144.45203 -6.7322063 -6.2409916 0
-144.21759 -6.7612715 -6.2349052 0
-144.04626 -6.731916 -6.2403069 0
-143.80522 -6.7094765 -6.2480927 0
-143.79082 -6.7438698 -6.2483215 0
-143.22714 -6.770237 -6.2517371 0
-148.96762 -6.6082821 -6.2909412 0
-148.71448 -6.6171842 -6.288331 0
-148.65759 -6.645649 -6.2749147 0
-148.55936 -6.6635938 -6.2790661 0
-147.85837 -6.6367607 -6.2517405 0
-147.63612 -6.6684852 -6.2519927 0
-147.5769 -6.6816392 -6.2536035 0
-147.32011 -6.6317549 -6.2220807 0
-147.26244 -6.6549759 -6.2311053 0
-147.17622 -6.6513338 -6.2238317 0
-147.09259 -6.6979718 -6.2222295 0
-146.90959 -6.6026106 -6.2096138 0
-146.67447 -6.6295877 -6.2133031 0
-146.5699 -6.668231 -6.2177501 0
-146.40109 -6.6003251 -6.2052345 0
-146.34955 -6.6627636 -6.2077208 0
-146.13232 -6.612196 -6.2046947 0
-146.07054 -6.6401687 -6.20965 0
-145.95062 -6.6532393 -6.2055836 0
-145.8363 -6.6760712 -6.2113814 0
-145.33382 -6.6704535 -6.2112455 0
-144.61017 -6.6144309 -6.2094798 0
-144.34814 -6.6742592 -6.2174668 0
-144.01329 -6.6856899 -6.2356768 0
-143.99799 -6.6901903 -6.2304454 0
-143.85703 -6.6875887 -6.2453632 0
-143.54562 -6.6212134 -6.2573953 0
-143.33192 -6.6480727 -6.2437701 0
-143.14922 -6.6982574 -6.244101 0
-143.09436 -6.6736946 -6.2194166 0
-149.16269 -6.5184374 -6.2933493 0
-149.05176 -6.5429492 -6.2914653 0
-148.92427 -6.512713 -6.2802896 0
-148.84259 -6.5571899 -6.2821817 0
-148.79105 -6.5654106 -6.2855377 0
-148.6098 -6.5083776 -6.2830644 0
-148.56081 -6.5551782 -6.2782345 0
-147.94193 -6.5265818 -6.2529259 0
-147.85434 -6.5520773 -6.2492738 0
-147.77246 -6.550209 -6.2514858 0
-147.67204 -6.5898514 -6.247715 0
-147.54289 -6.5135865 -6.2302432 0
-147.44679 -6.5587282 -6.2262044 0
-147.34364 -6.5635996 -6.2350664 0
-147.25645 -6.5578327 -6.2255888 0
-147.05005 -6.5144835 -6.2143507 0
-146.9969 -6.54076 -6.2227058 0
-146.8586 -6.5130568 -6.2141643 0
-146.76154 -6.5688663 -6.2141352 0
-146.34875 -6.5145407 -6.2001586 0
-145.68019 -6.5063534 -6.200891 0
-144.97588 -6.527082 -6.2026429 0
-144.74773 -6.568994 -6.2067833 0
-144.66704 -6.56671 -6.21733 0
-144.43048 -6.5408196 -6.2208982 0
-144.08176 -6.5924392 -6.2307582 0
-143.84552 -6.5908194 -6.2552915 0
-143.75049 -6.5194287 -6.2503786 0
-143.69197 -6.5562286 -6.2426615 0
-143.47168 -6.5205712 -6.2338562 0
-143.34981 -6.5568781 -6.2441287 0
-143.12099 -6.5210495 -6.2143936 0
-149.22845 -6.4505672 -6.2968655 0
-149.16931 -6.4139099 -6.2956071 0
-149.0619 -6.4453702 -6.2846451 0
-148.95341 -6.4427104 -6.2810402 0
-148.89876 -6.4931355 -6.2776718 0
-148.77362 -6.4083185 -6.2833748 0
-148.69879 -6.463366 -6.2776847 0
-148.12949 -6.4480624 -6.2537069 0
-148.03613 -6.4683971 -6.2545371 0
-147.83868 -6.4108458 -6.2392235 0
-147.77769 -6.4947286 -6.2470932 0
-147.64044 -6.4320707 -6.2363205 0
-147.53329 -6.4647322 -6.2414703 0
-147.46556 -6.4246664 -6.2203732 0
-147.37215 -6.4451079 -6.2236681 0
-147.23291 -6.4950528 -6.2206717 0
-147.19087 -6.4160643 -6.2156134 0
-147.03577 -6.4290743 -6.2175708 0
-146.92336 -6.4776716 -6.2156763 0
-145.70215 -6.4777751 -6.2032404 0
-144.65399 -6.4324951 -6.2267857 0
-144.50233 -6.4477143 -6.2203393 0
-144.23129 -6.4625287 -6.2160707 0
-143.86755 -6.4706936 -6.244853 0
-143.59648 -6.4493661 -6.2452559 0
-143.12083 -6.4753022 -6.2141261 0
-149.60796 -6.3263884 -6.2978554 0
-149.47948 -6.337183 -6.2968712 0
-149.3679 -6.3606043 -6.2950377 0
-149.26015 -6.3794813 -6.2924967 0
-149.17728 -6.3351717 -6.2798433 0
-149.07788 -6.3865719 -6.2827978 0
-148.86847 -6.3539343 -6.2814693 0
-148.24847 -6.3319974 -6.2560658 0
-148.14709 -6.3916225 -6.2558031 0
-148.03459 -6.327508 -6.2428088 0
-147.9416 -6.3249831 -6.2492085 0
-147.83253 -6.3306971 -6.2391911 0
-147.73734 -6.3543758 -6.2436905 0
-147.6795 -6.3936286 -6.2409315 0
-147.55684 -6.3507166 -6.2280331 0
-147.28537 -6.3869505 -6.2151399 0
-147.17197 -6.3052297 -6.2151127 0
-147.07758 -6.3762817 -6.2159758 0
-146.85461 -6.3931727 -6.2007732 0
-145.44246 -6.3070693 -6.2039528 0
-144.99585 -6.3919044 -6.2411046 0
-144.73131 -6.3261418 -6.224493 0
-144.64465 -6.3251667 -6.2164702 0
-144.47115 -6.3059645 -6.2160134 0
-144.12146 -6.3023691 -6.2313623 0
-143.87424 -6.3853889 -6.2371554 0
-143.79654 -6.3495097 -6.2210655 0
-143.54648 -6.3391347 -6.2414842 0
-143.24342 -6.3897696 -6.2285895 0
-143.08272 -6.3471823 -6.2045755 0
-149.98659 -6.2869816 -6.2881494 0
-149.51257 -6.2739372 -6.2986708 0
-149.44945 -6.2991014 -6.2879677 0
-149.3714 -6.2483368 -6.2825208 0
-149.12857 -6.2149606 -6.2807865 0
-149.07281 -6.2514796 -6.2795258 0
-148.56453 -6.2281413 -6.2669311 0
-148.46733 -6.2591066 -6.2601938 0
-148.35916 -6.2634182 -6.2550874 0
-148.16403 -6.2697549 -6.2396059 0
-148.06569 -6.2124691 -6.2395802 0
-147.95453 -6.264647 -6.2457595 0
-147.66232 -6.2868376 -6.2246203 0
-147.52588 -6.254972 -6.2212539 0
-147.493 -6.2830257 -6.2253494 0
-147.30142 -6.2244363 -6.2191625 0
-147.23656 -6.2373557 -6.2123113 0
-147.1414 -6.2419338 -6.2062473 0
-147.0573 -6.2837734 -6.204833 0
-145.45697 -6.276113 -6.202239 0
-144.94666 -6.2802558 -6.2027583 0
-144.82843 -6.2293663 -6.2065277 0
-144.75304 -6.2738686 -6.2100749 0
-144.57536 -6.2873101 -6.2094178 0
-144.33316 -6.2566109 -6.2174311 0
-143.12955 -6.2266417 -6.2255745 0
-149.66986 -6.1249256 -6.280581 0
-149.55537 -6.1366477 -6.288013 0
-149.31853 -6.1750093 -6.2776732 0
-149.23222 -6.1466689 -6.2853289 0
-149.16974 -6.1729231 -6.287631 0
-148.6497 -6.1940017 -6.2676439 0
-148.55962 -6.1428318 -6.2540669 0
-148.46936 -6.1607428 -6.2516708 0
-148.24582 -6.1154547 -6.2420087 0
-148.14664 -6.1549149 -6.2485399 0
-148.08305 -6.1788116 -6.249917 0
-147.73639 -6.1230102 -6.2240105 0
-147.5473 -6.1214356 -6.221447 0
-147.31911 -6.1376681 -6.2054653 0
-147.25079 -6.1644859 -6.2099276 0
-146.48102 -6.1399436 -6.2037988 0
-144.87097 -6.1525936 -6.2101178 0
-144.42392 -6.1991968 -6.2135081 0
-143.12299 -6.1768641 -6.2115831 0
-149.84386 -6.0182662 -6.2859154 0
-149.75937 -6.0740709 -6.282917 0
-149.53008 -6.0105281 -6.2843509 0
-149.493 -6.0330062 -6.2820301 0
-149.373 -6.0853152 -6.2816381 0
-149.00645 -6.0282049 -6.2730207 0
-148.94601 -6.0624313 -6.2715535 0
-148.82491 -6.018311 -6.25804 0
-148.73279 -6.0526075 -6.2596531 0
-148.64951 -6.0807428 -6.2499723 0
-148.40576 -6.0213017 -6.238059 0
-148.35323 -6.0789108 -6.2503676 0
-148.2215 -6.0782681 -6.2459445 0
-148.0807 -6.0180483 -6.2324138 0
-147.9108 -6.0062222 -6.2270966 0
-147.78951 -6.0456018 -6.2182765 0
-147.69237 -6.0214472 -6.219429 0
-147.58493 -6.0565963 -6.2170835 0
-146.96523 -6.0206542 -6.2112269 0
-144.97574 -6.0256681 -6.2052307 0
-144.56084 -6.0276375 -6.2041001 0
-144.37753 -6.0137534 -6.2096114 0
-143.12219 -6.0851045 -6.224524 0
-149.94339 -5.9822469 -6.2864509 0
-149.62985 -5.95965 -6.2870979 0
-149.57173 -5.9934082 -6.2861247 0
-149.23738 -5.9509692 -6.2740531 0
-149.0135 -5.9009643 -6.258419 0
-148.95151 -5.9766836 -6.2476015 0
-148.86754 -5.9723897 -6.257442 0
-148.71045 -5.9228292 -6.2547088 0
-148.55875 -5.9891458 -6.2557516 0
-148.35872 -5.9687586 -6.2465296 0
-148.28032 -5.9101448 -6.22855 0
-148.19048 -5.9646015 -6.2279253 0
-147.85332 -5.9671731 -6.2264132 0
-147.68234 -5.9703865 -6.2165117 0
-147.41701 -5.9610395 -6.2106519 0
-145.91364 -5.9990296 -6.2009683 0
-145.01064 -5.9746566 -6.2013044 0
-144.83353 -5.9510188 -6.2255192 0
-143.91057 -5.9046845 -6.2250175 0
-143.77034 -5.9036717 -6.2273259 0
-143.12022 -5.9790797 -6.2245297 0
-149.75594 -5.8955612 -6.2912059 0
-149.1595 -5.8405018 -6.2616525 0
-149.04681 -5.8705263 -6.2561145 0
-148.83249 -5.8640962 -6.2583857 0
-148.50854 -5.8577504 -6.2445946 0
-148.44873 -5.8595047 -6.2365685 0
-148.35352 -5.8751926 -6.2321873 0
-148.02621 -5.8164339 -6.2208261 0
-147.96423 -5.8482442 -6.2209358 0
-147.82883 -5.8958244 -6.2193937 0
-147.49704 -5.8449755 -6.2103662 0
-144.40854 -5.8881083 -6.2065396 0
-143.98328 -5.8402271 -6.2295103 0
-143.52211 -5.8554525 -6.2247376 0
-143.09818 -5.8818836 -6.2537766 0
-149.55225 -5.7562695 -6.2574453 0
-149.44646 -5.7486353 -6.2604904 0
-149.317 -5.748292 -6.2643247 0
-149.0448 -5.7046523 -6.2428141 0
-148.7131 -5.7270093 -6.2416148 0
-148.61804 -5.7426128 -6.2408657 0
-148.22476 -5.7076616 -6.2195139 0
-148.15662 -5.7413125 -6.2205873 0
-148.0752 -5.7649655 -6.2239027 0
-147.43721 -5.7969313 -6.2214475 0
-144.38248 -5.7620397 -6.2133627 0
-143.53462 -5.7663012 -6.2486877 0
-143.42374 -5.7829609 -6.2152205 0
-143.20415 -5.7864037 -6.222671 0
-143.06372 -5.777163 -6.2122955 0
-149.70644 -5.6356878 -6.262547 0
-149.6304 -5.6248055 -6.2619829 0
-149.53682 -5.6381087 -6.2669396 0
-149.45218 -5.6397886 -6.2654705 0
-149.35605 -5.6715593 -6.2638626 0
-149.26122 -5.6022463 -6.2440071 0
-149.11336 -5.662322 -6.2439394 0
-148.838 -5.6223493 -6.2400904 0
-148.7579 -5.6596327 -6.2416582 0
-148.65829 -5.6861105 -6.2356758 0
-148.35867 -5.659657 -6.2204247 0
-148.2448 -5.6590376 -6.2228231 0
-147.85413 -5.6429691 -6.2003427 0
-147.76334 -5.6435375 -6.2268534 0
-144.1243 -5.6475616 -6.2237501 0
-143.84334 -5.608923 -6.2169914 0
-143.70892 -5.6762171 -6.2233591 0
-143.54837 -5.6290922 -6.2314606 0
-143.25485 -5.6052976 -6.2262573 0
-143.08557 -5.6503148 -6.2171693 0
-149.93483 -5.5716033 -6.2616 0
-149.84442 -5.5324321 -6.271666 0
-149.75772 -5.5607228 -6.2680335 0
-149.68213 -5.5761638 -6.2682171 0
-149.40891 -5.5371695 -6.2444434 0
-149.32027 -5.5752211 -6.2442584 0
-149.13789 -5.5058374 -6.2353826 0
-148.95399 -5.5466475 -6.2399793 0
-148.45107 -5.5728664 -6.2242584 0
-148.34935 -5.5989695 -6.2214999 0
-148.11618 -5.5100331 -6.2041283 0
-148.04295 -5.5449986 -6.2004862 0
-147.95935 -5.5846739 -6.2013788 0
-147.8082 -5.5327468 -6.2018256 0
-147.74863 -5.5505495 -6.2088842 0
-144.60136 -5.5146408 -6.2165847 0
-144.18976 -5.5673623 -6.2168746 0
-143.92235 -5.5485668 -6.2162123 0
-143.88013 -5.5808234 -6.2139468 0
-143.57207 -5.5231872 -6.2408481 0
-143.29199 -5.5417337 -6.2099624 0
-143.10811 -5.5057235 -6.226965 0
-149.83925 -5.4731431 -6.2804122 0
-149.67513 -5.4283381 -6.249578 0
-149.54195 -5.4779639 -6.249886 0
-149.33664 -5.4142036 -6.2398615 0
-149.2485 -5.4460192 -6.2415781 0
-149.17578 -5.4734221 -6.2387285 0
-149.05252 -5.47123 -6.2392092 0
-148.73718 -5.4700174 -6.2264633 0
-148.24644 -5.4533339 -6.2025013 0
-148.16116 -5.4852829 -6.2195182 0
-147.96939 -5.433423 -6.2009172 0
-147.84592 -5.4560809 -6.2028198 0
-143.42734 -5.4186358 -6.2207155 0
-143.35315 -5.4575329 -6.2149296 0
-143.24274 -5.4351974 -6.2298489 0
-143.10863 -5.4008918 -6.2135653 0
-149.8172 -5.343441 -6.2516422 0
-149.62138 -5.318274 -6.2397842 0
-149.53214 -5.3324327 -6.2433176 0
-149.45587 -5.3720722 -6.2392154 0
-149.38834 -5.3978233 -6.2415667 0
-149.23763 -5.3882155 -6.24194 0
-149.00763 -5.3900719 -6.2278705 0
-148.99313 -5.3093824 -6.2333255 0
-148.66042 -5.3683648 -6.2310572 0
-148.4404 -5.3560185 -6.2050824 0
-148.26465 -5.3212748 -6.2033701 0
-148.15213 -5.3174577 -6.206408 0
-148.04996 -5.358017 -6.2046552 0
-147.935 -5.3719101 -6.2039423 0
-144.32524 -5.3109035 -6.2041049 0
-144.29451 -5.3075604 -6.2013793 0
-143.91223 -5.3303199 -6.2000117 0
-143.84619 -5.3104687 -6.2084289 0
-143.71663 -5.346633 -6.2138906 0
-143.53201 -5.3582358 -6.2235208 0
-143.10252 -5.381331 -6.2159324 0
-143.08929 -5.327744 -6.2093382 0
-149.97044 -5.2371316 -6.2382116 0
-149.28107 -5.2574883 -6.2289705 0
-149.14746 -5.2530169 -6.2342005 0
-148.95395 -5.2221713 -6.2234364 0
-148.85963 -5.2829037 -6.2203889 0
-148.77017 -5.2572403 -6.2142859 0
-148.66197 -5.2905803 -6.2018909 0
-148.55418 -5.2078114 -6.2047935 0
-148.43611 -5.2491059 -6.2076283 0
-148.33257 -5.2239733 -6.2055674 0
-148.24553 -5.2680111 -6.2052031 0
-148.06799 -5.209734 -6.2054462 0
-147.99341 -5.2806611 -6.2050986 0
-144.35504 -5.2454629 -6.2102871 0
-144.05573 -5.2494125 -6.2079725 0
-143.6319 -5.2480974 -6.224546 0
-143.12906 -5.2226591 -6.2170353 0
-149.65228 -5.1579051 -6.2327557 0
-149.49066 -5.1044636 -6.2335086 0
-149.36632 -5.1361589 -6.2391968 0
-149.13817 -5.1262121 -6.2355003 0
-149.06102 -5.1309237 -6.2189064 0
-148.83965 -5.1076612 -6.2100983 0
-148.73959 -5.1270714 -6.2112384 0
-148.6445 -5.1603651 -6.2097111 0
-148.47087 -5.1068616 -6.201242 0
-148.17398 -5.1152148 -6.202405 0
-143.144 -5.1878428 -6.221262 0
-143.03653 -5.1121655 -6.2068739 0
-149.81012 -5.0522995 -6.2428222 0
-149.75198 -5.0144701 -6.2345104 0
-149.62079 -5.0598602 -6.2440557 0
-149.46811 -5.0323162 -6.2158723 0
-149.30779 -5.0309281 -6.2224836 0
-148.91351 -5.0824814 -6.2114077 0
-148.52318 -5.0872769 -6.2027502 0
-143.66234 -5.0747075 -6.2072101 0
-143.35097 -5.0295644 -6.2053814 0
-143.25702 -5.0737495 -6.2170029 0
-149.90144 -4.9702711 -6.2190952 0
-149.71559 -4.9026299 -6.2171493 0
-149.63785 -4.9295306 -6.2143488 0
-149.53117 -4.9384441 -6.2178869 0
-149.42986 -4.9676619 -6.2229066 0
-149.3817 -4.9372306 -6.2155619 0
-149.24785 -4.9401865 -6.2199926 0
-149.14137 -4.9655509 -6.2196612 0
-148.82625 -4.9265609 -6.2016006 0
-148.73605 -4.9729314 -6.2026553 0
-143.76407 -4.9494886 -6.2015562 0
-143.68805 -4.9146638 -6.2207975 0
-143.57068 -4.9884186 -6.2062211 0
-143.4753 -4.9822297 -6.2016745 0
-149.91605 -4.8622684 -6.2133226 0
-149.74504 -4.8437405 -6.2230468 0
-149.66061 -4.8550129 -6.2195768 0
-149.56314 -4.8439975 -6.2227411 0
-148.99286 -4.8229041 -6.2060027 0
-148.89825 -4.8638248 -6.2077456 0
-143.8205 -4.8496814 -6.2031827 0
-143.69107 -4.8493423 -6.2219138 0
-143.50819 -4.8621511 -6.2047529 0
-149.80026 -4.7807674 -6.2270608 0
-149.76746 -4.7629943 -6.2260952 0
-149.6787 -4.7685933 -6.2112293 0
-149.23953 -4.7190399 -6.2016745 0
-149.11937 -4.765193 -6.2057152 0
-149.06761 -4.7799029 -6.2047973 0
-143.61296 -4.7705889 -6.200572 0
-143.44757 -4.7646213 -6.2011819 0
-149.66866 -4.6439476 -6.2114201 0
-149.4455 -4.6217785 -6.2047682 0
-149.32289 -4.6897101 -6.2012844 0
-143.89781 -4.6655765 -6.2210965 0
-143.76196 -4.6831226 -6.224062 0
-143.50226 -4.6706719 -6.2010946 0
-143.46602 -4.6880751 -6.2015519 0
-143.04129 -4.6574178 -6.205143 0
-149.82924 -4.5739055 -6.2171135 0
-149.71385 -4.502965 -6.2069287 0
-149.66876 -4.525939 -6.2049475 0
-149.53566 -4.5755639 -6.2062325 0
-149.85464 -4.4515471 -6.2057381 0
-149.79855 -4.4614744 -6.2104669 0
-143.79269 -4.4229336 -6.2099447 0
-143.6543 -4.4536576 -6.2282314 0
-143.40736 -4.4141583 -6.2011499 0
-143.14606 -4.4639859 -6.2137957 0
-143.08456 -4.4252148 -6.2081409 0
-143.61476 -4.3884048 -6.2284961 0
-143.5182 -4.325861 -6.2024722 0
-143.83055 -4.1951876 -6.2056227 0
-143.50652 -4.1227436 -6.223331 0
-143.18112 -4.1788163 -6.2243547 0
-143.44202 -4.0573335 -6.2241893 0
-143.38826 -3.8620193 -6.2184482 0
-143.15495 -3.6579912 -6.2268782 0
-143.08064 -3.5650158 -6.2276793 0
-143.10098 -3.4951799 -6.2214737 0
-143.01273 -3.209687 -6.2106061 0
-121.3018 -49.661476 -6.1663713 0
-121.37255 -49.568905 -6.1692405 0
-121.31165 -49.370388 -6.181951 0
-116.44479 -49.364849 -6.1366839 0
-122.49374 -49.140709 -6.1595311 0
-116.64699 -48.838085 -6.1502571 0
-123.07287 -48.370991 -6.1911893 0
-149.30859 -48.298763 -6.1387348 0
-149.14578 -48.219994 -6.1623578 0
-148.80344 -48.269901 -6.1016159 0
-148.75877 -48.258999 -6.1080623 0
-149.13187 -48.179497 -6.1659918 0
-116.80095 -48.18008 -6.1454296 0
-120.68551 -47.953598 -6.1332574 0
-116.98288 -47.90815 -6.177043 0
-117.05858 -47.751446 -6.1216164 0
-121.65754 -47.631783 -6.1689391 0
-117.07958 -47.523571 -6.1139622 0
-117.15461 -47.496365 -6.1302996 0
-117.20708 -47.329746 -6.1438913 0
-117.23066 -47.207279 -6.1999888 0
-117.38465 -47.150524 -6.1782322 0
-120.83368 -47.085392 -6.1566067 0
-117.28822 -47.074043 -6.1439776 0
-117.17285 -46.936527 -6.1005125 0
-117.26049 -46.839615 -6.1141424 0
-117.32815 -46.727818 -6.1297393 0
-120.56584 -46.676243 -6.1838741 0
-117.35746 -46.643631 -6.1636086 0
-117.43346 -46.509132 -6.1601281 0
-117.36665 -46.585278 -6.1662259 0
-117.4333 -46.44775 -6.1814947 0
-117.4837 -46.355053 -6.1814432 0
-117.54527 -46.244198 -6.1644335 0
-117.59959 -46.130993 -6.1442137 0
-113.65911 -46.000607 -6.129406 0
-117.61361 -45.862545 -6.1134696 0
-117.78704 -45.6497 -6.1432571 0
-113.9025 -45.608093 -6.1292353 0
-113.2149 -45.60973 -6.154161 0
-117.7174 -45.570427 -6.1290312 0
-121.0349 -45.438496 -6.1145139 0
-117.84247 -45.305656 -6.1295028 0
-114.31136 -45.387459 -6.1466975 0
-117.88651 -45.228691 -6.100594 0
-114.08599 -45.140862 -6.1921277 0
-149.11288 -45.009605 -6.1706853 0
-148.85606 -45.054684 -6.1859741 0
-114.27074 -45.066792 -6.1557217 0
-113.93334 -45.074146 -6.1970992 0
-110.31882 -45.023643 -6.1032128 0
-149.40031 -44.916454 -6.1570444 0
-149.36877 -44.954582 -6.1557961 0
-149.2657 -44.97963 -6.1606369 0
-121.53962 -44.978775 -6.1559882 0
-121.32152 -44.808151 -6.1708837 0
-118.04697 -44.872139 -6.1456857 0
-117.93243 -44.878666 -6.155417 0
-111.35612 -44.854721 -6.1309214 0
-121.39237 -44.710922 -6.1170659 0
-118.16004 -44.541847 -6.1635652 0
-118.18805 -44.458942 -6.1523008 0
-114.62442 -44.442249 -6.1916142 0
-142.85056 -44.300694 -6.1350436 0
-114.70728 -44.386707 -6.1861348 0
-142.93698 -44.217331 -6.1414104 0
-142.87372 -44.255005 -6.1699572 0
-118.16009 -44.291084 -6.1766462 0
-142.94382 -44.174759 -6.143404 0
-142.8744 -44.158199 -6.1807952 0
-121.64827 -44.144356 -6.15938 0
-121.75891 -44.021404 -6.1641603 0
-121.75687 -43.956272 -6.1698747 0
-118.51185 -43.70298 -6.1884508 0
-118.35331 -43.781139 -6.1951795 0
-109.01899 -43.506329 -6.1011028 0
-121.76701 -43.488251 -6.1331716 0
-109.67046 -43.437061 -6.1033597 0
-122.03793 -43.3326 -6.186831 0
-121.8142 -43.331505 -6.1583896 0
-121.96969 -43.224804 -6.1717448 0
-109.37282 -43.256229 -6.1455045 0
-122.18872 -42.925438 -6.1689386 0
-122.2319 -42.888676 -6.1552567 0
-122.08584 -42.813885 -6.1072407 0
-122.23856 -42.716709 -6.1936769 0
-108.45896 -42.733456 -6.1331282 0
-122.47616 -42.131824 -6.1866446 0
-122.39566 -42.009319 -6.1346269 0
-122.34258 -41.8619 -6.1779943 0
-122.68024 -41.307613 -6.1554651 0
-122.75957 -41.139015 -6.1615896 0
-122.78136 -41.051243 -6.1621871 0
-122.8095 -40.97821 -6.1669521 0
-122.84172 -40.894463 -6.1674047 0
-122.96892 -40.701283 -6.1755023 0
-122.89783 -40.798733 -6.1738329 0
-108.97569 -40.556602 -6.1177707 0
-108.58794 -40.588478 -6.1113353 0
-123.20039 -40.336845 -6.185123 0
-109.50498 -40.211815 -6.1448088 0
-109.27956 -39.888588 -6.1389017 0
-132.90167 -39.516773 -6.1178293 0
-133.05731 -39.489613 -6.1863103 0
-109.82399 -39.413071 -6.1723919 0
-109.57408 -39.460087 -6.1821232 0
-133.12851 -39.356258 -6.1177697 0
-132.95572 -39.359478 -6.1463566 0
-132.80948 -39.341881 -6.1855407 0
-120.19557 -39.037159 -6.1739445 0
-109.23623 -38.905685 -6.1033983 0
-109.38488 -38.866428 -6.1088305 0
-108.65053 -38.892914 -6.1562042 0
-120.323 -38.687706 -6.1966414 0
-109.49646 -38.624294 -6.1691942 0
-109.28532 -37.98262 -6.1268258 0
-109.16059 -37.618477 -6.1041398 0
-109.15692 -36.941544 -6.123507 0
-120.87439 -36.854504 -6.1449451 0
-109.02596 -36.865417 -6.1069436 0
-124.55725 -36.619995 -6.1868224 0
-120.8718 -36.677132 -6.1479268 0
-109.01165 -36.66893 -6.1197252 0
-109.11332 -36.538948 -6.1341372 0
-109.03753 -36.469357 -6.1316319 0
-121.02248 -36.235031 -6.1495557 0
-109.03578 -36.11882 -6.1271005 0
-109.08244 -36.061428 -6.1561499 0
-121.1096 -35.991356 -6.1497345 0
-109.07114 -35.940079 -6.1609316 0
-121.31826 -35.619461 -6.1415386 0
-121.25376 -35.672726 -6.1592946 0
-124.85837 -35.398365 -6.1564913 0
-121.37119 -35.242836 -6.1698632 0
-121.29259 -35.27832 -6.1541653 0
-121.60263 -34.839199 -6.1919317 0
-121.5556 -34.882759 -6.1409554 0
-125.09868 -34.632778 -6.1314874 0
-125.12334 -34.544067 -6.1399927 0
-121.64777 -34.561897 -6.1663566 0
-108.4193 -34.547455 -6.1847515 0
-121.72578 -34.443478 -6.1711531 0
-121.69608 -34.496746 -6.1704469 0
-108.15162 -34.325623 -6.1107993 0
-107.98919 -34.118923 -6.13375 0
-125.48696 -34.082924 -6.1604791 0
-126.13983 -33.954723 -6.1863818 0
-121.95982 -33.928555 -6.192337 0
-121.89645 -33.878304 -6.1700845 0
-107.74548 -33.8395 -6.1128855 0
-107.79755 -33.621319 -6.1801963 0
-127.96814 -33.329277 -6.1897812 0
-107.75371 -33.356972 -6.1958618 0
-107.11223 -33.200321 -6.1082234 0
-107.4246 -33.160091 -6.1669965 0
-107.0561 -33.074409 -6.1261907 0
-142.43663 -32.909615 -6.1282525 0
-122.16566 -32.959885 -6.1581941 0
-142.54272 -32.860485 -6.100131 0
-142.48914 -32.84671 -6.1389079 0
-107.22997 -32.875698 -6.1920023 0
-106.7455 -32.887798 -6.1010399 0
-125.87638 -32.695881 -6.1530504 0
-122.43829 -32.385517 -6.1223855 0
-106.39271 -32.347992 -6.1000385 0
-106.28188 -32.275627 -6.1304536 0
-126.50697 -32.115215 -6.1906004 0
-126.4796 -32.16647 -6.1871061 0
-106.21449 -32.167316 -6.1392469 0
-122.58866 -32.038845 -6.1738887 0
-106.08472 -31.856195 -6.1312056 0
-122.78848 -31.424932 -6.1436152 0
-126.5756 -31.152882 -6.1433644 0
-126.56477 -30.912889 -6.121304 0
-126.7498 -30.472029 -6.1163955 0
-127.0493 -30.045118 -6.1632385 0
-126.92999 -29.978302 -6.1164136 0
-126.898 -29.971388 -6.1208034 0
-127.326 -29.711229 -6.1572089 0
-127.10848 -29.704622 -6.1378112 0
-126.91094 -29.79747 -6.1085124 0
-127.0144 -29.540886 -6.104763 0
-127.43042 -29.462132 -6.1832886 0
-127.70335 -29.316574 -6.1759796 0
-127.21491 -29.302219 -6.1110306 0
-127.19579 -29.239531 -6.1141734 0
-127.58449 -29.128384 -6.1285815 0
-127.25016 -29.186123 -6.1278462 0
-128.30885 -29.025377 -6.1814842 0
-127.33648 -29.069305 -6.1127825 0
-123.96112 -29.09436 -6.1350808 0
-123.86199 -29.00358 -6.1410828 0
-128.99635 -28.758247 -6.1850019 0
-128.28979 -28.679342 -6.190444 0
-127.7392 -28.655264 -6.1547241 0
-127.30584 -28.5874 -6.1139569 0
-118.66096 -28.576145 -6.1854415 0
-130.76169 -28.420166 -6.1856437 0
-130.05713 -28.453079 -6.1805406 0
-128.47537 -28.415857 -6.1821837 0
-127.40748 -28.437229 -6.1198997 0
-131.31395 -28.261402 -6.1872625 0
-130.65428 -28.239931 -6.1654983 0
-128.30894 -28.269106 -6.1347756 0
-128.24925 -28.22221 -6.1326337 0
-128.18477 -28.263992 -6.1326137 0
-127.45993 -28.276775 -6.1267538 0
-131.8513 -28.113171 -6.1929708 0
-131.01103 -28.125938 -6.1829653 0
-131.07292 -28.074392 -6.1743755 0
-129.77742 -28.018457 -6.1588397 0
-131.52159 -27.906811 -6.1832538 0
-131.42003 -27.992651 -6.1782756 0
-129.33879 -27.99119 -6.1710677 0
-128.35924 -27.980833 -6.1535096 0
-128.12781 -27.920233 -6.1234517 0
-124.11282 -27.979908 -6.1708512 0
-132.15814 -27.879524 -6.1997581 0
-130.55417 -27.810528 -6.1416564 0
-128.14113 -27.862904 -6.1526275 0
-127.99491 -27.88376 -6.1207299 0
-132.18741 -27.616089 -6.1885724 0
-128.23967 -27.667942 -6.1352167 0
-128.96284 -27.594088 -6.1538005 0
-128.14001 -27.546221 -6.1179576 0
-131.03824 -27.482101 -6.1679406 0
-128.54897 -27.432228 -6.1478252 0
-128.19556 -27.406019 -6.1185369 0
-132.40234 -27.39924 -6.1993508 0
-129.73582 -27.338268 -6.1349225 0
-128.30864 -27.30559 -6.1633477 0
-131.26965 -27.277617 -6.172472 0
-129.70724 -27.205982 -6.1398282 0
-104.60272 -27.27573 -6.1333637 0
-130.32292 -27.17149 -6.1408811 0
-130.10901 -27.159113 -6.1609368 0
-131.6925 -27.061829 -6.1648245 0
-131.15656 -27.061222 -6.1356521 0
-130.95374 -27.020084 -6.1363344 0
-128.40851 -27.096334 -6.1358194 0
-120.51608 -27.095528 -6.1178007 0
-128.29051 -26.949808 -6.1004829 0
-132.47577 -26.830004 -6.1835732 0
-131.38907 -26.862873 -6.1452188 0
-120.45519 -26.833988 -6.1395173 0
-120.26157 -26.858526 -6.1435466 0
-119.66717 -26.822294 -6.1460514 0
-131.806 -26.702097 -6.1491914 0
-130.72359 -26.729204 -6.1336923 0
-130.14362 -26.744858 -6.1155777 0
-119.59408 -26.717413 -6.1478591 0
-130.97827 -26.638151 -6.1311173 0
-129.18457 -26.601988 -6.1049271 0
-121.02253 -26.641979 -6.1483283 0
-132.14137 -26.529228 -6.1581516 0
-131.62538 -26.504797 -6.1506729 0
-131.40042 -26.518059 -6.170929 0
-131.28838 -26.531273 -6.1713433 0
-131.17686 -26.539522 -6.1719942 0
-130.45683 -26.53384 -6.1059456 0
-129.17712 -26.509411 -6.1406889 0
-132.65146 -26.488661 -6.1779919 0
-131.54678 -26.443071 -6.1730051 0
-131.46826 -26.495087 -6.1713448 0
-130.56377 -26.420551 -6.1080713 0
-128.9101 -26.463408 -6.1092 0
-121.96287 -26.428513 -6.1039052 0
-132.69005 -26.350245 -6.1928091 0
-132.55974 -26.38339 -6.161211 0
-131.93538 -26.313366 -6.1753421 0
-131.83824 -26.328176 -6.1755524 0
-131.64616 -26.35301 -6.1761894 0
-130.00787 -26.321344 -6.1137848 0
-128.4232 -26.383535 -6.1102734 0
-122.21768 -26.39175 -6.1095362 0
-122.03764 -26.39291 -6.1057086 0
-121.67728 -26.355642 -6.1056504 0
-130.17467 -26.273739 -6.111527 0
-132.72255 -26.191929 -6.1747041 0
-131.89037 -26.146051 -6.1406016 0
-130.17802 -26.131548 -6.1097755 0
-132.21468 -26.028812 -6.1387353 0
-132.13493 -26.079388 -6.1373577 0
-131.74178 -26.053852 -6.1374574 0
-133.93158 -25.989378 -6.1966257 0
-132.47984 -25.973789 -6.1857939 0
-131.23615 -25.92436 -6.119369 0
-132.61159 -25.8538 -6.1650214 0
-131.4332 -25.840342 -6.1082745 0
-130.82542 -25.819752 -6.1416664 0
-132.42322 -25.762819 -6.1897626 0
-132.29221 -25.793571 -6.1734552 0
-131.71031 -25.76391 -6.1241398 0
-133.20117 -25.411419 -6.1769018 0
-133.1277 -25.451956 -6.176343 0
-132.32988 -25.406942 -6.1291175 0
-132.17073 -25.489058 -6.1295671 0
-131.89676 -25.454277 -6.1229711 0
-133.27464 -25.370888 -6.1774569 0
-132.61227 -25.301533 -6.1488581 0
-133.151 -25.281862 -6.1678252 0
-132.56459 -25.129061 -6.1407156 0
-121.18003 -25.102085 -6.1120834 0
-121.04256 -25.109722 -6.1322217 0
-133.92998 -24.925303 -6.1877289 0
-132.1935 -24.946959 -6.1029344 0
-133.22229 -24.841267 -6.153729 0
-132.49576 -24.891695 -6.110014 0
-132.93309 -24.755745 -6.1468349 0
-132.86964 -24.784342 -6.1461487 0
-132.79507 -24.781673 -6.1210575 0
-132.08508 -24.765366 -6.107163 0
-134.49823 -24.579304 -6.1940665 0
-132.8244 -24.529947 -6.1362329 0
-108.70549 -24.528772 -6.1610265 0
-134.33508 -24.462393 -6.1996002 0
-133.54178 -24.439365 -6.1563349 0
-132.83717 -24.467531 -6.1355639 0
-132.57896 -24.439108 -6.1255012 0
-132.286 -24.489412 -6.1207304 0
-123.80077 -24.431421 -6.1287355 0
-109.00548 -24.43273 -6.1717801 0
-108.88769 -24.487001 -6.1630702 0
-133.98882 -24.371222 -6.1581569 0
-133.76431 -24.357243 -6.1629205 0
-133.56172 -24.370125 -6.1592331 0
-133.46846 -24.340542 -6.1493363 0
-109.13722 -24.35354 -6.1546931 0
-134.616 -24.219423 -6.1751866 0
-133.94905 -24.238047 -6.1662159 0
-133.87158 -24.254158 -6.1652222 0
-109.45886 -24.268667 -6.1870489 0
-109.22761 -24.287813 -6.1823621 0
-134.01787 -24.169365 -6.1698852 0
-133.71823 -24.189137 -6.1594195 0
-135.28955 -24.000246 -6.1968083 0
-134.4523 -23.929483 -6.1735535 0
-134.03889 -23.95344 -6.1740246 0
-133.25658 -23.987808 -6.1472764 0
-134.64619 -23.850286 -6.1723771 0
-134.30736 -23.859451 -6.1706123 0
-134.97446 -23.708399 -6.1889782 0
-134.23175 -23.781752 -6.1735702 0
-133.77139 -23.775377 -6.1569924 0
-134.78802 -23.584591 -6.1728406 0
-133.97835 -23.519094 -6.169075 0
-133.43634 -23.521713 -6.1066771 0
-135.05328 -23.446995 -6.1943359 0
-134.85435 -23.450705 -6.1751161 0
-135.34636 -23.313028 -6.1934633 0
-135.08577 -23.387964 -6.1938233 0
-134.97426 -23.348475 -6.1767259 0
-133.02769 -23.397198 -6.1277084 0
-136.14404 -23.252712 -6.1994357 0
-135.04083 -23.203417 -6.1819177 0
-134.98265 -23.255114 -6.1810312 0
-109.62209 -23.260008 -6.1063581 0
-109.43225 -23.286543 -6.1059422 0
-135.13538 -23.123514 -6.1831598 0
-135.06491 -23.176136 -6.1834602 0
-134.81345 -23.109516 -6.1883888 0
-135.35779 -23.019667 -6.1819949 0
-135.23485 -23.042891 -6.1843023 0
-135.19392 -23.074297 -6.183918 0
-136.18683 -22.932297 -6.1944098 0
-135.45509 -22.93487 -6.1900697 0
-135.39377 -22.988987 -6.1824827 0
-134.53397 -22.915548 -6.1426682 0
-135.52954 -22.862415 -6.184855 0
-135.4903 -22.853024 -6.1864123 0
-135.5914 -22.760305 -6.1881084 0
-135.73196 -22.655012 -6.1893201 0
-135.66455 -22.695421 -6.1892323 0
-134.0056 -22.690624 -6.1182499 0
-124.10069 -22.672268 -6.1040053 0
-136.15836 -22.502863 -6.1879959 0
-135.72363 -22.562429 -6.1940784 0
-135.69464 -22.554056 -6.1953001 0
-136.31525 -22.471148 -6.1827288 0
-136.04634 -22.400627 -6.192975 0
-135.96863 -22.42226 -6.194088 0
-135.83365 -22.432085 -6.197381 0
-135.75668 -22.476412 -6.1973619 0
-134.40398 -22.450958 -6.1149611 0
-136.14937 -22.309345 -6.1945686 0
-136.04871 -22.347033 -6.1955338 0
-135.75902 -22.376265 -6.1990013 0
-134.78674 -22.348528 -6.1424623 0
-133.29414 -22.39196 -6.1591024 0
-136.21634 -22.213247 -6.1974092 0
-136.13087 -22.251232 -6.1979342 0
-134.74748 -22.229431 -6.1500144 0
-136.42891 -22.110832 -6.1964974 0
-136.37241 -22.13945 -6.1966696 0
-136.23758 -22.176189 -6.1926637 0
-136.61603 -22.007107 -6.1963673 0
-136.54892 -22.032221 -6.1970057 0
-136.46074 -22.065887 -6.1910133 0
-133.99388 -22.099754 -6.1213818 0
-136.66121 -21.969971 -6.1969299 0
-135.68492 -21.83219 -6.1814857 0
-134.91922 -21.833893 -6.1253743 0
-134.75145 -21.715197 -6.1090741 0
-134.62502 -21.715899 -6.1123857 0
-134.9108 -21.639116 -6.116148 0
-134.83774 -21.65617 -6.1166849 0
-134.78673 -21.684248 -6.1106954 0
-134.43819 -21.605927 -6.1086369 0
-134.39224 -21.566484 -6.1168938 0
-135.25928 -21.407879 -6.1338987 0
-134.72377 -21.453886 -6.1204538 0
-135.41652 -21.3958 -6.1328487 0
-136.44876 -21.227867 -6.183054 0
-135.76784 -21.246645 -6.1754785 0
-136.60339 -21.112532 -6.1820035 0
-135.98378 -21.18741 -6.1450467 0
-135.43149 -21.089865 -6.1533484 0
-135.12627 -21.017332 -6.1188722 0
-136.81107 -20.927427 -6.1953897 0
-135.83667 -20.989555 -6.1670575 0
-134.78062 -20.953619 -6.1206446 0
-136.2821 -20.841276 -6.1757898 0
-137.11374 -20.715706 -6.1741405 0
-137.0284 -20.719757 -6.1760721 0
-136.99799 -20.759636 -6.1826344 0
-136.75972 -20.711174 -6.173965 0
-135.37727 -20.798927 -6.1348915 0
-136.11404 -20.600784 -6.1268902 0
-137.52374 -20.507418 -6.1855102 0
-136.4299 -20.583939 -6.1677303 0
-136.23526 -20.522499 -6.1256104 0
-135.95233 -20.551994 -6.1625133 0
-137.47992 -20.423786 -6.195786 0
-137.39899 -20.472643 -6.1827874 0
-136.91919 -20.411718 -6.1823912 0
-136.83875 -20.348989 -6.1643105 0
-135.47227 -20.332993 -6.1001415 0
-136.85724 -20.244371 -6.1740985 0
-135.5983 -20.289591 -6.1078568 0
-137.43932 -20.154434 -6.191174 0
-136.53082 -20.176704 -6.1280456 0
-136.02461 -20.154737 -6.1145425 0
-137.52597 -20.072037 -6.1835451 0
-136.91879 -20.066809 -6.1635833 0
-136.18761 -20.066324 -6.1082811 0
-135.94957 -20.048006 -6.1165094 0
-137.62727 -19.907007 -6.1803832 0
-136.72462 -19.94475 -6.1332154 0
-138.06168 -19.870747 -6.1933894 0
-136.55409 -19.856619 -6.1304617 0
-137.63962 -19.796673 -6.1815829 0
-136.91833 -19.717762 -6.1379552 0
-136.54857 -19.773842 -6.130723 0
-137.69894 -19.659166 -6.1805878 0
-136.94379 -19.671604 -6.1515555 0
-137.00999 -19.52141 -6.1449137 0
-136.9989 -19.507587 -6.1462932 0
-136.28098 -19.500591 -6.1077027 0
-138.67075 -19.421156 -6.1979771 0
-137.758 -19.41889 -6.1595025 0
-137.08907 -19.418037 -6.1422839 0
-136.27956 -19.450014 -6.1350775 0
-137.81885 -19.357681 -6.1749916 0
-137.73264 -19.398041 -6.1717916 0
-138.68747 -19.294273 -6.1964569 0
-137.56328 -19.282864 -6.1522894 0
-137.25394 -19.276739 -6.1477361 0
-135.94582 -19.294533 -6.1190763 0
-138.20959 -19.183167 -6.1874027 0
-137.91312 -19.128471 -6.1674623 0
-137.31339 -19.104151 -6.1560111 0
-137.24887 -19.108578 -6.1547499 0
-137.16258 -19.181086 -6.1342702 0
-138.55171 -19.07263 -6.1980443 0
-137.94308 -19.045368 -6.168294 0
-136.65791 -19.084269 -6.1111331 0
-136.53735 -19.029032 -6.1031513 0
-136.1718 -19.034197 -6.1002154 0
-136.06277 -19.068695 -6.1228704 0
-138.24802 -18.901215 -6.1824889 0
-137.75519 -18.905777 -6.1516213 0
-137.1514 -18.966936 -6.1305704 0
-136.3161 -18.986792 -6.1334558 0
-136.13492 -18.918156 -6.1255798 0
-136.08511 -18.993473 -6.1246467 0
-138.3622 -18.827873 -6.1753864 0
-138.17783 -18.886782 -6.1832004 0
-138.04169 -18.864027 -6.1628895 0
-137.95052 -18.841383 -6.1496315 0
-137.84253 -18.821007 -6.1421413 0
-137.97505 -18.717293 -6.114954 0
-136.90533 -18.781467 -6.1179976 0
-138.56261 -18.694304 -6.1904011 0
-137.92537 -18.642139 -6.1454806 0
-137.49376 -18.693573 -6.1397119 0
-138.9375 -18.546911 -6.1941586 0
-137.44542 -18.595337 -6.1339531 0
-136.76196 -18.507877 -6.1021852 0
-138.08853 -18.449932 -6.1529818 0
-137.99001 -18.434725 -6.151866 0
-137.57579 -18.432465 -6.1354694 0
-138.7157 -18.388124 -6.19625 0
-139.00699 -18.265017 -6.1767912 0
-138.32845 -18.243404 -6.1596403 0
-137.07924 -18.254543 -6.1139722 0
-136.78355 -18.297007 -6.1219506 0
-138.29674 -18.111116 -6.1666965 0
-137.59534 -18.146265 -6.1350455 0
-138.79498 -18.065691 -6.1863284 0
-138.40022 -18.099327 -6.1695023 0
-138.38417 -18.08909 -6.1566648 0
-137.6234 -17.83246 -6.1297307 0
-139.05377 -17.748299 -6.1765327 0
-138.55331 -17.761002 -6.1689792 0
-138.4563 -17.770367 -6.1686387 0
-138.63351 -17.646582 -6.1562262 0
-139.401 -17.520235 -6.1989045 0
-138.89481 -17.422201 -6.1762605 0
-138.6407 -17.464788 -6.1654592 0
-138.32758 -17.495632 -6.1407752 0
-139.21919 -17.349503 -6.1644731 0
-137.69324 -17.391977 -6.1063519 0
-138.7413 -17.202559 -6.1708183 0
-138.58023 -17.275984 -6.152102 0
-138.09854 -17.119165 -6.1202531 0
-139.24915 -17.064392 -6.1734715 0
-138.87106 -17.043156 -6.1581168 0
-138.75461 -17.051035 -6.1721506 0
-137.61909 -17.016788 -6.1182203 0
-138.78783 -16.911156 -6.1487665 0
-138.6272 -16.928406 -6.1284037 0
-138.04977 -16.969852 -6.1121016 0
-138.92754 -16.820986 -6.1697235 0
-139.52022 -16.741058 -6.1841063 0
-139.03754 -16.723354 -6.1728001 0
-137.77832 -16.755415 -6.1192317 0
-138.91978 -16.659849 -6.1697874 0
-139.41064 -16.536074 -6.1701756 0
-138.1586 -16.596281 -6.1289673 0
-139.6996 -16.458929 -6.1938424 0
-139.03183 -16.464422 -6.1760216 0
-138.02684 -16.404808 -6.1019731 0
-139.82033 -16.354454 -6.1927142 0
