# .PCD v0.7 - Point Cloud Data file format
VERSION 0.7
FIELDS x y z intensity
SIZE 4 4 4 4
TYPE F F F F
COUNT 1 1 1 1
WIDTH 1049
HEIGHT 1
VIEWPOINT 0 0 0 1 0 0 0
POINTS 1049
DATA ascii
-107.39144 -161.7148 -11.387843 0
-118.04145 -178.87631 -11.192949 0
-101.01184 -156.31812 -10.814006 0
-101.62726 -156.11749 -10.857527 0
-100.16327 -155.81944 -10.792757 0
-100.77559 -156.38467 -10.67545 0
-100.6162 -159.42319 -10.544846 0
-101.9285 -157.50609 -10.548319 0
-102.01369 -157.83443 -10.467468 0
-100.53027 -156.47496 -10.364861 0
-101.79197 -156.29405 -10.362357 0
-121.96135 -154.2756 -10.336715 0
-125.63953 -152.75157 -10.3773 0
-102.11136 -156.70825 -10.294721 0
-117.14565 -153.67445 -10.229148 0
-137.04529 -162.37891 -10.165187 0
-128.15309 -151.80945 -10.156094 0
-138.14676 -165.35872 -10.073604 0
-138.97298 -160.79195 -10.013583 0
-94.177773 -154.59941 -10.049871 0
-128.8143 -151.36438 -10.088934 0
-139.64624 -160.32404 -9.984354 0
-134.71483 -156.95659 -9.918745 0
-94.745285 -160.60899 -9.8580637 0
-145.17766 -154.32944 -9.8121891 0
-140.31 -161.92105 -9.7854853 0
-142.13554 -159.75729 -9.757061 0
-142.13303 -159.39297 -9.7226343 0
-94.622932 -157.94763 -9.7835398 0
-143.02722 -157.24474 -9.7879057 0
-94.542244 -155.34213 -9.7139997 0
-146.13188 -153.24858 -9.7045412 0
-108.90067 -163.15791 -9.6265297 0
-142.04887 -160.39201 -9.6099548 0
-142.09575 -160.13811 -9.6930628 0
-142.91904 -159.57333 -9.6220388 0
-95.167458 -159.54424 -9.6273022 0
-142.70956 -158.97765 -9.6968279 0
-144.6835 -157.41104 -9.6105585 0
-100.36534 -156.62009 -9.6223097 0
-94.296425 -154.63319 -9.6665115 0
-145.20558 -154.30228 -9.691267 0
-145.36432 -154.06036 -9.6726046 0
-146.03043 -153.35934 -9.6066713 0
-149.25964 -153.29916 -9.6548681 0
-149.03372 -153.01814 -9.641552 0
-146.62988 -152.73184 -9.6557417 0
-146.74263 -152.65225 -9.6461964 0
-147.01628 -151.94345 -9.6705027 0
-130.55716 -169.59062 -9.5827951 0
-109.6381 -163.75233 -9.5695448 0
-108.89942 -162.89188 -9.5789118 0
-148.2112 -161.20168 -9.5357714 0
-142.36867 -160.0298 -9.5468807 0
-142.25961 -160.0468 -9.5794048 0
-94.299332 -159.89673 -9.5693521 0
-94.307266 -157.47955 -9.5106754 0
-98.862907 -157.2986 -9.5826769 0
-145.50143 -156.70024 -9.5667696 0
-100.32137 -156.79895 -9.5847826 0
-145.6245 -156.61775 -9.5629244 0
-147.49931 -155.83495 -9.544383 0
-148.49698 -155.74081 -9.5807228 0
-145.50023 -154.38327 -9.5885324 0
-149.02452 -153.61743 -9.5791473 0
-146.17349 -153.19003 -9.5904732 0
-147.58693 -151.70929 -9.5543242 0
-140.07822 -151.24182 -9.5621777 0
-130.35503 -169.62187 -9.4240246 0
-109.06248 -163.3557 -9.4570189 0
-108.92474 -163.24867 -9.4746904 0
-108.84032 -163.09007 -9.4852333 0
-94.324844 -157.61957 -9.4222193 0
-94.123619 -157.42766 -9.4655914 0
-94.313377 -155.00969 -9.4960814 0
-94.229393 -155.00253 -9.4384747 0
-94.049797 -154.59406 -9.4880352 0
-117.23856 -153.84689 -9.4869871 0
-117.09043 -153.79602 -9.4679451 0
-148.44009 -150.63277 -9.4492054 0
-148.68068 -150.01189 -9.4435492 0
-141.20186 -150.01323 -9.4413576 0
-109.09152 -163.53593 -9.3422832 0
-109.02508 -163.41103 -9.3465834 0
-94.348114 -160.40282 -9.3759451 0
-143.03912 -160.209 -9.3071136 0
-142.69832 -160.004 -9.3333569 0
-141.96234 -160.00078 -9.3148613 0
-142.12408 -159.92894 -9.3008633 0
-98.987587 -157.92998 -9.3286524 0
-94.043564 -157.08899 -9.3426533 0
-117.07992 -153.78325 -9.3737154 0
-109.13177 -163.54491 -9.2063799 0
-109.1109 -163.45035 -9.2617264 0
-108.85226 -163.08914 -9.2248926 0
-143.1261 -159.6489 -9.2961845 0
-99.817986 -157.53796 -9.2837076 0
-117.16364 -153.80026 -9.2972879 0
-132.82686 -167.89258 -9.1467237 0
-109.23965 -163.52397 -9.1619987 0
-108.99197 -163.40494 -9.191843 0
-109.10921 -163.10497 -9.1694784 0
-109.04922 -163.19125 -9.1891489 0
-109.78983 -162.62189 -9.164052 0
-142.15314 -159.97493 -9.1638851 0
-101.40189 -157.6252 -9.1797009 0
-94.119225 -157.10081 -9.1114979 0
-108.96133 -163.27919 -9.0911179 0
-108.93704 -162.91432 -9.0941181 0
-143.02974 -160.23862 -9.0354548 0
-142.20247 -160.02077 -9.0375423 0
-142.58719 -159.94917 -9.0388765 0
-148.07816 -156.23465 -9.0338087 0
-140.66843 -163.39252 -8.9234152 0
-142.74435 -160.19069 -8.903018 0
-142.58992 -160.16234 -8.9038954 0
-142.6091 -160.06392 -8.988575 0
-142.07584 -159.97791 -8.952281 0
-144.5148 -159.52866 -8.9618931 0
-143.06154 -160.21948 -8.8994436 0
-142.90102 -160.16968 -8.899128 0
-142.43726 -160.0175 -8.8977184 0
-148.85048 -159.96255 -8.8043556 0
-146.53929 -157.46979 -8.876255 0
-145.85222 -157.44661 -8.8628006 0
-148.05692 -156.21597 -8.8905401 0
-145.63087 -170.60736 -8.7439661 0
-130.16603 -169.64317 -8.7407618 0
-137.44249 -164.66261 -8.7911243 0
-143.12691 -160.29625 -8.7957039 0
-142.97153 -160.22229 -8.7107334 0
-144.27983 -159.59532 -8.7401581 0
-145.83209 -157.19055 -8.7040577 0
-148.6272 -155.24054 -8.780076 0
-142.33328 -159.98582 -8.6416521 0
-145.65767 -157.1407 -8.6776857 0
-148.30669 -156.37355 -8.6518946 0
-137.89853 -165.84464 -8.5966434 0
-142.51834 -160.16556 -8.5401859 0
-142.60349 -160.08076 -8.5345612 0
-142.49248 -160.05263 -8.5184011 0
-142.3914 -160.03372 -8.5479031 0
-142.27831 -160.03212 -8.5158215 0
-142.14629 -160.09119 -8.5232735 0
-142.22302 -159.96851 -8.5519018 0
-146.11461 -157.40604 -8.5784025 0
-111.84614 -177.3773 -8.4272041 0
-139.99484 -163.29231 -8.4022341 0
-148.39742 -156.34947 -8.3100872 0
-117.66354 -178.45888 -8.2262926 0
-142.17935 -160.07639 -8.2336283 0
-147.8596 -156.45992 -8.2127581 0
-147.05188 -156.1553 -8.2244043 0
-140.35689 -163.47592 -8.1078444 0
-148.73428 -162.58253 -8.165247 0
-143.14328 -160.37662 -8.1630659 0
-142.64989 -160.28099 -8.1564302 0
-142.41957 -160.16209 -8.1477413 0
-149.83366 -155.63051 -8.1091738 0
-149.88974 -166.01445 -8.0816679 0
-139.79147 -163.37025 -8.0941133 0
-148.51907 -162.47748 -8.0249929 0
-143.35283 -160.21935 -8.0983286 0
-148.59784 -162.52274 -7.9714661 0
-141.94084 -160.03668 -7.9285455 0
-144.08604 -159.05475 -7.9588327 0
-145.55135 -156.77696 -7.9912224 0
-145.19302 -156.74496 -7.9142752 0
-148.09618 -156.32971 -7.9534054 0
-143.2435 -160.07664 -7.822217 0
-142.44562 -160.0528 -7.8783817 0
-146.15009 -157.63432 -7.8551741 0
-146.31619 -157.3833 -7.8352742 0
-146.19305 -157.32018 -7.8067174 0
-148.26134 -156.31558 -7.89008 0
-147.44691 -156.11197 -7.8713694 0
-147.39845 -156.017 -7.8531165 0
-142.06082 -160.03653 -7.7717428 0
-146.37199 -157.36011 -7.7603178 0
-148.14059 -156.19655 -7.7621598 0
-93.893074 -150.51945 -7.7728281 0
-139.63348 -163.56813 -7.5690603 0
-139.49905 -163.53391 -7.5750189 0
-139.90784 -163.47256 -7.5856171 0
-142.28914 -161.21082 -7.5637755 0
-143.21973 -160.19125 -7.5720835 0
-141.864 -160.01677 -7.5404997 0
-142.21416 -159.97325 -7.5780039 0
-148.72545 -159.88597 -7.5642395 0
-148.18172 -156.26704 -7.578229 0
-137.96884 -165.12788 -7.4976091 0
-142.35934 -160.09782 -7.4316602 0
-141.94504 -160.03012 -7.4450498 0
-142.36041 -159.98511 -7.4170241 0
-142.15057 -159.92918 -7.4212389 0
-142.02991 -159.98441 -7.4305148 0
-94.246826 -152.43092 -7.4404049 0
-94.077614 -152.38028 -7.4319558 0
-94.079712 -151.05975 -7.4527717 0
-117.54328 -178.33296 -7.3165832 0
-138.63834 -162.12279 -7.3524294 0
-143.39932 -160.12698 -7.3399634 0
-142.24539 -159.9873 -7.3020082 0
-142.121 -159.99361 -7.3070822 0
-147.96179 -155.9919 -7.3017135 0
-142.35762 -160.02225 -7.2976804 0
-142.46695 -160.17175 -7.1947446 0
-142.36653 -160.05624 -7.1959305 0
-94.069809 -151.68112 -7.1723495 0
-94.131927 -150.87003 -7.1673594 0
-94.032089 -150.16467 -7.1586485 0
-142.85736 -160.03723 -7.0552416 0
-138.97823 -162.99001 -6.936482 0
-142.56555 -161.26295 -6.9478388 0
-143.53281 -160.13547 -6.9114604 0
-143.42131 -160.12337 -6.9189777 0
-141.99625 -160.00374 -6.9276447 0
-142.09425 -159.90393 -6.9816933 0
-145.77505 -156.92426 -6.9837189 0
-145.59769 -156.85339 -6.9472361 0
-143.11256 -160.09741 -6.800765 0
-142.00623 -159.99234 -6.8327618 0
-146.39301 -157.26143 -6.8632102 0
-147.25995 -155.88727 -6.8808603 0
-117.34683 -178.16486 -6.7789922 0
-136.32745 -169.98682 -6.7741656 0
-139.86191 -163.86424 -6.7402701 0
-142.48032 -161.11163 -6.7916079 0
-143.3231 -160.14763 -6.7862282 0
-142.37018 -160.10669 -6.7284808 0
-143.26459 -160.0899 -6.7684116 0
-142.34174 -160.07645 -6.7091365 0
-145.59338 -156.94749 -6.7559919 0
-117.01128 -178.91418 -6.5404983 0
-139.91701 -163.83408 -6.53229 0
-143.04201 -160.10184 -6.5680332 0
-142.18607 -160.01534 -6.5657091 0
-143.15822 -159.97789 -6.5468187 0
-145.11046 -157.05627 -6.5417233 0
-147.39836 -156.42654 -6.5450172 0
-146.74438 -156.2972 -6.5420179 0
-148.17091 -155.67412 -6.562932 0
-148.84116 -153.0563 -6.5485525 0
-142.98495 -160.13654 -6.4684024 0
-139.55396 -163.66528 -6.3342338 0
-139.35149 -163.57927 -6.3235931 0
-141.85664 -160.06012 -6.3860865 0
-142.02579 -159.96484 -6.3781595 0
-141.92625 -159.94186 -6.3721232 0
-143.07491 -160.15199 -6.2724466 0
-142.19632 -160.05908 -6.2899413 0
-141.86768 -160.02577 -6.2169061 0
-142.8262 -161.47514 -6.102077 0
-142.38368 -161.48898 -6.1479669 0
-142.2252 -160.18005 -6.1557345 0
-142.19226 -160.00142 -6.1036 0
-141.85535 -160.04921 -6.0444531 0
-143.57249 -160.11427 -5.9174128 0
-149.38406 -151.57457 -5.9413629 0
-142.00316 -159.95955 -5.8444042 0
-141.88359 -159.95076 -5.8413048 0
-141.74773 -159.99544 -5.8382525 0
-143.38452 -160.0184 -5.7284889 0
-142.05835 -160.04736 -5.7179837 0
-143.39511 -159.99335 -5.6824155 0
-146.60216 -157.33142 -5.6402164 0
-146.3763 -157.31339 -5.6671333 0
-139.69577 -164.05606 -5.5927119 0
-142.27231 -160.19032 -5.5872922 0
-142.20103 -160.07065 -5.5824084 0
-142.15396 -160.07211 -5.5597024 0
-141.80678 -160.0247 -5.5502214 0
-142.09415 -159.99791 -5.5692449 0
-141.86923 -159.98953 -5.551827 0
-141.76195 -159.92575 -5.5005674 0
-143.48553 -160.13388 -5.4631701 0
-143.45398 -160.02721 -5.4101319 0
-141.74435 -160.02718 -5.4267397 0
-143.53767 -159.98694 -5.4449663 0
-141.72264 -160.17082 -5.316812 0
-142.0351 -160.06641 -5.3195 0
-143.47702 -159.9855 -5.3192744 0
-142.0379 -159.98528 -5.2953644 0
-94.195862 -151.23933 -5.2965455 0
-142.16528 -160.21266 -5.1883245 0
-142.10974 -160.13145 -5.1285434 0
-141.68217 -160.00789 -5.0822554 0
-94.00695 -151.30203 -5.0493116 0
-136.27289 -169.90028 -4.9979453 0
-142.04324 -160.10963 -4.981864 0
-146.26465 -157.24161 -4.9859791 0
-142.51199 -161.69016 -4.825099 0
-143.85847 -160.01692 -4.8462539 0
-142.02469 -160.02937 -4.8166122 0
-143.3065 -159.84033 -4.8539033 0
-94.168137 -151.39381 -4.8091822 0
-93.992966 -150.85858 -4.8633409 0
-142.56143 -161.77222 -4.7106237 0
-141.7529 -160.03345 -4.7068152 0
-143.39635 -159.83943 -4.7901688 0
-143.31369 -159.38315 -4.7452064 0
-146.36836 -157.24774 -4.7971087 0
-148.43526 -151.66188 -4.7006817 0
-142.00069 -160.06839 -4.5947185 0
-141.79411 -160.01515 -4.5897527 0
-143.55225 -159.86986 -4.5976844 0
-142.11827 -160.11606 -4.4306388 0
-142.07014 -160.08167 -4.4118547 0
-143.72029 -159.847 -4.4396152 0
-131.73251 -176.65419 -4.3710704 0
-142.1608 -160.1337 -4.3115549 0
-141.86913 -160.1105 -4.3475175 0
-143.44122 -159.76233 -4.3274388 0
-143.32758 -159.78419 -4.3088627 0
-146.27365 -157.17474 -4.3459334 0
-94.037239 -154.25038 -4.3829451 0
-141.96153 -160.14708 -4.1335807 0
-141.8631 -160.01978 -4.1120586 0
-121.97847 -181.89215 -4.0882177 0
-141.65988 -160.10837 -4.0412865 0
-143.80096 -159.77179 -4.025794 0
-143.7005 -159.62125 -4.0291128 0
-143.50392 -159.66125 -4.0424857 0
-141.72191 -159.96732 -3.9289339 0
-143.32877 -159.69008 -3.9513321 0
-143.79869 -159.58064 -3.8804817 0
-142.72304 -161.96133 -3.7922735 0
-146.94585 -156.0097 -3.702966 0
-141.73825 -159.91083 -3.6760592 0
-141.61665 -159.97673 -3.6327295 0
-144.09396 -159.63739 -3.6526132 0
-131.58946 -176.55913 -3.599457 0
-144.04774 -159.53241 -3.5430357 0
-143.80263 -159.43614 -3.5434451 0
-141.94254 -160.00806 -3.4580836 0
-141.67599 -159.97632 -3.4474916 0
-143.93854 -159.51591 -3.4509754 0
-141.84628 -159.96988 -3.2105947 0
-144.00238 -159.39987 -3.2064826 0
-141.86441 -160.08467 -3.1703336 0
-141.69391 -159.93338 -3.1745939 0
-141.58046 -159.91353 -3.1710753 0
-145.02126 -157.1113 -3.1632457 0
-141.75002 -159.96083 -3.0642099 0
-142.88522 -162.10657 -2.941992 0
-141.90482 -160.16161 -2.9752097 0
-143.60464 -158.89883 -2.9943938 0
-143.61574 -158.72873 -2.926188 0
-143.38425 -158.627 -2.9845533 0
-146.40263 -157.1729 -2.9132242 0
-142.90514 -162.11931 -2.8752091 0
-141.4146 -159.82416 -2.8562002 0
-144.18924 -159.31789 -2.8321722 0
-93.702209 -153.87845 -2.8344622 0
-143.03178 -162.22885 -2.7881784 0
-141.50827 -159.78629 -2.7272446 0
-143.59753 -158.29253 -2.7159922 0
-146.33322 -157.20761 -2.7280374 0
-146.8766 -156.55574 -2.7425499 0
-141.95593 -160.3871 -2.6863339 0
-144.27232 -159.28537 -2.6460617 0
-144.05284 -159.21776 -2.6658792 0
-143.13914 -157.7484 -2.6166751 0
-147.29869 -156.69061 -2.6252322 0
-136.56714 -169.59673 -2.5166869 0
-141.7189 -159.89368 -2.5277383 0
-142.69485 -159.2827 -2.5029595 0
-146.36053 -156.26637 -2.5871429 0
-141.4162 -159.8159 -2.4520423 0
-143.2081 -157.49864 -2.4380493 0
-145.63684 -156.72057 -2.4494405 0
-147.287 -156.61394 -2.462364 0
-144.37914 -159.28203 -2.3607869 0
-147.15691 -157.38316 -2.3705215 0
-146.05734 -156.41042 -2.3135717 0
-146.49202 -155.83769 -2.3651004 0
-141.62469 -159.79736 -2.2675192 0
-144.87013 -157.07759 -2.2685847 0
-145.10464 -156.92906 -2.2961771 0
-144.74976 -156.9389 -2.2713017 0
-145.48384 -156.77606 -2.2224648 0
-146.09839 -155.72879 -2.2355995 0
-146.57645 -155.47614 -2.249907 0
-142.08531 -160.69279 -2.1327481 0
-141.82112 -160.51657 -2.1323707 0
-141.3002 -159.75813 -2.1086106 0
-141.83327 -158.27475 -2.1413403 0
-143.43347 -157.38707 -2.1441829 0
-143.44722 -157.16716 -2.117424 0
-143.33623 -157.18761 -2.1165097 0
-144.96567 -156.91031 -2.14185 0
-144.85265 -156.82259 -2.170115 0
-144.80042 -156.79126 -2.1559904 0
-146.13135 -156.23549 -2.1598103 0
-146.59019 -156.11803 -2.147512 0
-146.27461 -155.57175 -2.1946146 0
-142.99573 -162.36311 -2.0997672 0
-141.89957 -160.56894 -2.0998213 0
-141.12784 -157.94795 -2.0370531 0
-143.44304 -157.01776 -2.0322807 0
-142.33714 -158.76389 -1.969074 0
-142.27187 -158.64409 -1.9720184 0
-146.79944 -155.76846 -1.9870682 0
-143.45921 -156.95908 -1.8932621 0
-142.98526 -162.31514 -1.7621397 0
-140.92319 -159.64821 -1.7982285 0
-140.65347 -159.67258 -1.7700657 0
-141.52309 -159.55042 -1.7954577 0
-144.75162 -159.25896 -1.7290152 0
-146.368 -156.33859 -1.7292265 0
-147.04185 -155.94444 -1.7605581 0
-143.43437 -162.45856 -1.6891525 0
-141.49864 -159.62505 -1.6953539 0
-147.22385 -157.56152 -1.6525658 0
-143.70648 -156.7914 -1.6173148 0
-146.62059 -156.34509 -1.6251464 0
-116.89313 -177.14153 -1.517879 0
-141.84822 -160.91948 -1.5279485 0
-146.47092 -156.78654 -1.5514884 0
-149.23625 -151.63866 -1.5434586 0
-149.57755 -151.15742 -1.5413024 0
-145.66661 -156.74281 -1.4652015 0
-149.16228 -151.44298 -1.4778534 0
-149.59926 -151.1647 -1.4141386 0
-146.62555 -157.11499 -1.3873699 0
-145.81567 -156.7343 -1.3936319 0
-146.07993 -156.14549 -1.3090947 0
-143.87151 -152.03337 -1.3860192 0
-143.15837 -162.40274 -1.247465 0
-141.62112 -159.48427 -1.2195346 0
-144.34824 -159.03401 -1.2670507 0
-144.25923 -159.05409 -1.2376831 0
-144.99644 -157.1714 -1.2103106 0
-143.19383 -155.20583 -1.2532939 0
-149.44621 -151.02339 -1.2134026 0
-136.65775 -169.56306 -1.1376742 0
-140.33858 -159.54337 -1.1914026 0
-140.27274 -159.5576 -1.1897616 0
-144.77383 -159.24388 -1.1901138 0
-144.57112 -159.14395 -1.1532571 0
-148.74106 -151.23001 -1.1499877 0
-131.9003 -176.56322 -1.080759 0
-140.05739 -159.38972 -1.061502 0
-144.66829 -159.08775 -1.0933799 0
-147.56451 -157.08876 -1.0390378 0
-145.43561 -162.03979 -0.99268293 0
-142.50922 -154.77335 -0.97429454 0
-117.11024 -177.27898 -0.85088956 0
-143.47891 -162.40088 -0.81306225 0
-144.51358 -159.00352 -0.83882505 0
-139.76497 -159.32082 -0.74399781 0
-141.28166 -159.2681 -0.74299383 0
-144.64914 -159.01608 -0.76675653 0
-144.41141 -158.9726 -0.7124905 0
-145.70439 -156.87518 -0.71576869 0
-147.08379 -156.79239 -0.71021801 0
-146.90262 -156.23572 -0.7386477 0
-143.34654 -162.40259 -0.69794559 0
-139.9437 -159.38533 -0.66526681 0
-141.16013 -159.26587 -0.61364096 0
-141.16714 -159.19606 -0.66179961 0
-144.73792 -158.95276 -0.65872228 0
-146.97096 -156.82007 -0.69690216 0
-146.99678 -156.66333 -0.68526947 0
-146.81035 -156.689 -0.61638641 0
-146.46185 -156.67889 -0.6384536 0
-143.5509 -151.90009 -0.63479269 0
-141.42892 -159.28162 -0.54810029 0
-141.22441 -159.2758 -0.50560313 0
-139.50291 -159.26355 -0.57392538 0
-146.92523 -156.63275 -0.55197924 0
-146.50378 -156.17009 -0.59969532 0
-143.89902 -155.60344 -0.55247104 0
-144.98166 -159.02594 -0.47279045 0
-145.89157 -157.16339 -0.44845447 0
-146.06894 -156.68581 -0.48913929 0
-144.03864 -155.53445 -0.45213127 0
-143.84079 -155.53432 -0.4873279 0
-144.06734 -155.35919 -0.47384259 0
-143.64662 -162.49895 -0.32208076 0
-139.54811 -159.27814 -0.30453497 0
-139.4052 -159.29631 -0.37575868 0
-144.79388 -158.92294 -0.35410953 0
-146.28517 -157.21954 -0.30847824 0
-147.21181 -156.9426 -0.35462913 0
-145.82225 -156.61018 -0.33038753 0
-148.57471 -150.379 -0.34427154 0
-149.44527 -150.07211 -0.35784093 0
-141.27521 -159.24762 -0.25313288 0
-141.1362 -159.17763 -0.29257897 0
-141.0374 -159.13582 -0.2953279 0
-139.12454 -159.14264 -0.26557177 0
-144.93388 -158.92441 -0.21463768 0
-144.85181 -158.91096 -0.23203862 0
-146.45195 -156.89995 -0.24466994 0
-145.93614 -156.55971 -0.27892604 0
-145.71022 -156.52327 -0.28620911 0
-145.59792 -156.50748 -0.2899155 0
-141.55228 -159.26729 -0.13734727 0
-141.42928 -159.20613 -0.19160844 0
-141.23624 -159.1237 -0.18589607 0
-141.14279 -159.14867 -0.13292082 0
-139.15308 -159.11592 -0.17685084 0
-146.64322 -157.1091 -0.18917033 0
-146.22058 -156.97501 -0.12282851 0
-145.96165 -156.76212 -0.10921109 0
-145.61032 -156.4135 -0.1083108 0
-139.06625 -159.09816 -0.030929323 0
-144.96388 -158.92523 -0.028055079 0
-145.05669 -158.8895 -0.0057558808 0
-142.86159 -163.44827 0.096276388 0
-141.19476 -159.23645 0.023840386 0
-139.00072 -159.07887 0.034321815 0
-138.92865 -159.02588 0.052412089 0
-144.05307 -155.48994 0.033026129 0
-144.0062 -154.5222 0.079518244 0
-144.17688 -162.68657 0.18583621 0
-144.09035 -162.61528 0.18777131 0
-138.72801 -159.03453 0.11500142 0
-146.47856 -156.81793 0.19797629 0
-146.64493 -156.73026 0.1711527 0
-143.98982 -154.44417 0.10436117 0
-141.64464 -150.60225 0.1598032 0
-143.09271 -163.61288 0.278099 0
-144.95676 -158.90195 0.23986368 0
-144.86514 -158.83723 0.2290879 0
-146.88887 -156.58203 0.22376379 0
-144.04015 -155.24205 0.22438227 0
-144.05035 -154.34296 0.20214857 0
-144.12883 -154.27589 0.28286916 0
-144.05107 -154.22025 0.28375241 0
-143.89011 -154.25555 0.23690136 0
-142.71605 -163.49329 0.31802282 0
-141.13272 -159.04982 0.35991937 0
-145.07411 -158.82669 0.31965384 0
-144.75764 -158.7442 0.3582074 0
-146.08206 -157.18643 0.30664438 0
-146.89613 -156.96237 0.36649978 0
-144.15536 -155.19138 0.38705823 0
-144.09686 -162.61501 0.40809879 0
-144.90634 -158.73463 0.45893079 0
-146.76741 -156.34074 0.45580223 0
-146.4052 -156.34438 0.48108912 0
-144.33731 -155.03462 0.42998853 0
-144.15881 -154.237 0.42627114 0
-117.29279 -177.03178 0.50001413 0
-136.76546 -169.1297 0.50893861 0
-141.2204 -158.9489 0.58823198 0
-145.12869 -158.8158 0.52708668 0
-146.60768 -157.22321 0.51482135 0
-144.57726 -155.07428 0.5993278 0
-144.31955 -154.90057 0.56206775 0
-144.20465 -154.94482 0.52919334 0
-145.64549 -152.72813 0.5154258 0
-117.22797 -176.95937 0.66680413 0
-141.61057 -159.00975 0.63395828 0
-141.34413 -158.85014 0.61875224 0
-138.54337 -158.88052 0.62795919 0
-138.28149 -158.85075 0.61614859 0
-144.95929 -158.73067 0.66916561 0
-146.3325 -157.46478 0.63377112 0
-146.5119 -156.40338 0.68325174 0
-144.09866 -153.94254 0.65074462 0
-145.15823 -158.84381 0.72225058 0
-145.09055 -158.72455 0.77103353 0
-138.12619 -158.76672 0.79833961 0
-138.05153 -158.78285 0.76170611 0
-145.21448 -158.69279 0.7727561 0
-144.82091 -158.67606 0.74661434 0
-147.01981 -157.39174 0.78701776 0
-146.3176 -156.45334 0.71627152 0
-145.80814 -152.26613 0.7813707 0
-149.54037 -150.02769 0.75453317 0
-145.50645 -159.07251 0.83750415 0
-141.37924 -158.89153 0.86669314 0
-138.04201 -158.75055 0.84710091 0
-137.58185 -158.63904 0.88109499 0
-146.6631 -157.41208 0.81314731 0
-146.60516 -156.72783 0.84769422 0
-144.23251 -154.70969 0.80640948 0
-145.54695 -152.70496 0.81359589 0
-145.24542 -158.80714 0.90472001 0
-145.16371 -158.64825 0.94804436 0
-145.02402 -158.62567 0.99255359 0
-144.84381 -158.61678 0.98596406 0
-141.05606 -158.64658 0.90591621 0
-141.02599 -158.37737 0.99024135 0
-146.93166 -157.59172 0.96124518 0
-146.70689 -157.44806 0.91053563 0
-146.71075 -157.36307 0.91184562 0
-146.93936 -157.10742 0.93643051 0
-144.30162 -154.64539 0.94502246 0
-145.75961 -152.72733 0.98660535 0
-141.42802 -159.02654 1.0013745 0
-138.16118 -158.75208 1.033329 0
-141.20042 -158.45741 1.098704 0
-141.18973 -158.49142 1.0105127 0
-141.05737 -157.8047 1.0692056 0
-144.15163 -153.39616 1.0013278 0
-143.97182 -153.3327 1.0985341 0
-144.25356 -153.29561 1.0016751 0
-144.07408 -153.20863 1.0700033 0
-143.98714 -153.23187 1.0405157 0
-145.24989 -153.0442 1.0929803 0
-146.08578 -152.84039 1.0095558 0
-145.67033 -152.6338 1.0846459 0
-141.27242 -159.01285 1.1966704 0
-141.26471 -158.97964 1.1946948 0
-141.18246 -158.97888 1.1001415 0
-141.35364 -158.45175 1.174613 0
-137.24226 -158.47551 1.1397043 0
-141.06767 -158.39088 1.1617278 0
-147.02504 -157.47502 1.1438349 0
-143.96126 -153.34349 1.1660497 0
-144.07146 -153.28619 1.1441469 0
-145.57904 -152.5004 1.1765834 0
-142.07025 -161.80453 1.2165662 0
-141.14857 -158.92886 1.2640048 0
-140.98337 -158.96286 1.2720538 0
-141.2225 -158.46594 1.2184168 0
-146.9068 -156.92606 1.2668465 0
-146.52057 -156.61563 1.2426286 0
-144.42215 -152.8508 1.2073815 0
-143.97467 -152.57924 1.282872 0
-145.59322 -152.43753 1.2053684 0
-145.67393 -152.2877 1.2109025 0
-141.18803 -158.90308 1.3660427 0
-145.10596 -158.69821 1.304708 0
-145.06677 -158.64583 1.3864489 0
-137.59236 -158.5155 1.3332334 0
-141.11972 -158.33316 1.3687327 0
-141.08728 -158.31891 1.3502915 0
-146.6192 -156.87906 1.3791969 0
-143.9695 -153.15334 1.3107699 0
-144.56642 -152.68481 1.3178917 0
-145.50954 -152.32678 1.3028407 0
-149.99562 -150.02856 1.3192481 0
-131.16704 -176.21577 1.4466523 0
-141.03993 -158.2751 1.4764678 0
-140.97336 -158.2383 1.4036809 0
-146.17958 -156.94046 1.4739945 0
-142.10013 -161.9563 1.5883387 0
-142.04564 -161.9698 1.533619 0
-137.68303 -158.60008 1.5159874 0
-137.57281 -158.31073 1.5651562 0
-137.32973 -158.34662 1.5530957 0
-146.86282 -156.89842 1.5216913 0
-145.78429 -156.82845 1.5278517 0
-144.56009 -153.95367 1.5161573 0
-144.83069 -153.73424 1.5263659 0
-143.75136 -152.9437 1.596494 0
-144.54945 -152.43143 1.5875866 0
-144.57829 -152.3239 1.5409815 0
-140.80447 -159.11116 1.603254 0
-140.94371 -158.06358 1.6238922 0
-137.29437 -157.88185 1.6405792 0
-146.6774 -156.97403 1.6244609 0
-146.56314 -156.9601 1.6327469 0
-146.73166 -156.89133 1.6630586 0
-145.88235 -156.85635 1.6693375 0
-144.51071 -152.03819 1.6838598 0
-142.27808 -150.73004 1.6917472 0
-142.58925 -163.99028 1.7021743 0
-144.92177 -158.62128 1.7715093 0
-146.87714 -157.03412 1.779111 0
-143.64046 -152.87741 1.7279009 0
-144.84657 -152.0255 1.7652265 0
-142.26952 -150.81715 1.7734793 0
-142.02135 -150.3839 1.778147 0
-141.65363 -150.04887 1.7507268 0
-137.35306 -169.1123 1.8995168 0
-136.43105 -168.64337 1.8174067 0
-145.06845 -162.90698 1.8511031 0
-144.74767 -162.86646 1.8550726 0
-146.61955 -159.79564 1.8764565 0
-145.04648 -158.67104 1.8048022 0
-137.25748 -158.28801 1.8398333 0
-137.00098 -158.24365 1.8917238 0
-146.70351 -157.01593 1.8087683 0
-146.33798 -156.90347 1.8263761 0
-144.45869 -152.08293 1.8717234 0
-144.80641 -151.96077 1.813089 0
-142.76511 -151.4247 1.8986256 0
-144.92014 -150.4294 1.8723493 0
-141.51324 -158.957 1.926268 0
-145.15874 -158.63277 1.9498563 0
-145.08215 -158.61627 1.9538554 0
-142.05177 -152.26427 1.9844981 0
-143.01253 -152.03337 1.981342 0
-144.90968 -151.60574 1.9556503 0
-142.84702 -151.56427 1.9283577 0
-144.79655 -150.34023 1.9847314 0
-141.55437 -158.96494 2.033145 0
-140.29115 -158.24788 2.0901158 0
-137.04582 -158.17747 2.0228469 0
-136.74626 -158.03069 2.0808654 0
-140.91037 -157.81865 2.0209787 0
-146.63939 -156.99002 2.0969787 0
-142.07173 -152.22969 2.0238266 0
-144.4008 -152.10008 2.0416291 0
-144.30312 -152.04663 2.0773883 0
-144.34717 -151.98222 2.081023 0
-144.87555 -151.18523 2.0437431 0
-144.98055 -150.73022 2.003886 0
-144.85626 -150.37613 2.0068872 0
-142.23909 -161.79185 2.1783354 0
-145.02301 -158.55942 2.1174629 0
-136.94896 -158.07739 2.1051583 0
-140.94005 -157.48993 2.1463413 0
-146.45848 -156.94965 2.1470041 0
-143.55228 -154.39229 2.1380765 0
-144.80202 -151.36786 2.1955078 0
-144.93307 -151.28345 2.1725292 0
-145.03113 -151.16902 2.1821268 0
-144.85983 -151.04204 2.1169429 0
-144.83348 -150.99161 2.1703479 0
-142.30682 -150.69049 2.1968315 0
-141.52887 -158.97179 2.2499037 0
-145.16824 -158.63628 2.2154772 0
-145.08871 -158.52351 2.2077694 0
-140.92107 -157.50308 2.2081265 0
-140.90523 -157.35114 2.269659 0
-143.5858 -153.32585 2.2667158 0
-143.04729 -152.09039 2.2752442 0
-144.77167 -151.68965 2.2219703 0
-141.49052 -158.90346 2.3955131 0
-145.32347 -158.37038 2.3238149 0
-136.81219 -158.01346 2.3024807 0
-140.86485 -157.10954 2.3920715 0
-144.01981 -151.69861 2.3771341 0
-145.13271 -151.0507 2.3556488 0
-145.07716 -151.0045 2.3846478 0
-141.96967 -150.98566 2.3070538 0
-141.60257 -159.01749 2.4379232 0
-145.46828 -158.21326 2.4527676 0
-145.13068 -158.08051 2.4363179 0
-136.77348 -157.8015 2.4932568 0
-140.94962 -157.18393 2.4430432 0
-140.84839 -157.18921 2.4012895 0
-141.50748 -162.11392 2.5243471 0
-145.34567 -158.70848 2.5074167 0
-145.53712 -150.81769 2.5749032 0
-130.55917 -173.46555 2.6144648 0
-145.68326 -163.09587 2.6211462 0
-145.55936 -163.02753 2.6077397 0
-145.17656 -162.98305 2.6297519 0
-140.66515 -156.78641 2.6664379 0
-140.60812 -156.48544 2.6862304 0
-143.56575 -151.18611 2.6816945 0
-145.3614 -150.93088 2.6985557 0
-141.52715 -162.14502 2.7710233 0
-145.18745 -157.89122 2.7374299 0
-136.60872 -157.64182 2.7384853 0
-143.50476 -151.15218 2.7014749 0
-143.33365 -150.3381 2.7463326 0
-141.46843 -162.06358 2.8684304 0
-145.66092 -158.7836 2.8563654 0
-136.45828 -157.73996 2.8371313 0
-140.76184 -156.40509 2.8807347 0
-143.54726 -154.04694 2.8140566 0
-145.28526 -162.83397 2.916718 0
-145.81564 -158.82138 2.9024625 0
-145.56718 -157.5605 2.9040623 0
-137.26569 -168.82138 3.0981529 0
-145.67461 -163.10324 3.0808265 0
-145.5506 -163.09651 3.0667138 0
-142.37097 -161.59375 3.0651112 0
-139.93445 -160.1694 3.0275986 0
-146.04515 -158.8515 3.0694628 0
-145.19017 -158.7439 3.0336554 0
-136.37968 -157.64447 3.0649581 0
-145.65039 -157.43333 3.0568936 0
-142.52008 -164.81557 3.1856337 0
-145.79442 -163.16643 3.1633177 0
-145.52304 -163.00739 3.1037316 0
-143.24277 -153.9599 3.1205308 0
-139.71806 -160.22337 3.2660556 0
-141.63457 -158.97392 3.2143424 0
-145.97188 -158.84932 3.2138393 0
-141.46719 -158.87749 3.2284479 0
-145.67281 -157.21603 3.2075953 0
-142.80275 -151.13576 3.2310426 0
-144.2023 -151.01242 3.2218099 0
-142.68588 -151.04567 3.2623279 0
-141.54439 -158.80804 3.3714902 0
-145.16925 -158.7019 3.3757906 0
-144.97395 -158.633 3.3263793 0
-145.03914 -158.54356 3.3253555 0
-140.74461 -155.79205 3.3473332 0
-135.41389 -155.05363 3.3987827 0
-145.78627 -150.55002 3.3682249 0
-139.5621 -160.40149 3.4853382 0
-141.73047 -158.8015 3.4127862 0
-145.39941 -158.76143 3.4708943 0
-145.03386 -158.61841 3.4169931 0
-141.39725 -158.65417 3.4805925 0
-145.16357 -157.07005 3.4006021 0
-145.80179 -150.48395 3.4150884 0
-146.51801 -164.3739 3.5864182 0
-142.96358 -161.53896 3.5354028 0
-142.88475 -161.44676 3.5259178 0
-142.7515 -161.36772 3.5568657 0
-139.22743 -160.45096 3.5606728 0
-138.83882 -160.40849 3.568953 0
-145.0531 -158.68446 3.5577714 0
-135.62433 -155.29691 3.5402229 0
-142.71068 -161.20139 3.671248 0
-148.08046 -160.55183 3.6770542 0
-139.38756 -160.31749 3.6122086 0
-141.61324 -158.7547 3.6002536 0
-145.14206 -158.65604 3.6144896 0
-144.98331 -158.63087 3.6688848 0
-140.3954 -156.36916 3.6333306 0
-143.78065 -150.25572 3.6087136 0
-145.10352 -158.68446 3.783145 0
-145.8994 -156.80128 3.7785873 0
-140.75502 -155.20326 3.7718284 0
-116.13564 -179.04166 3.8172109 0
-141.51094 -158.63387 3.844137 0
-146.01163 -156.7421 3.8240864 0
-145.80324 -156.77615 3.8602967 0
-140.68829 -155.09631 3.8308706 0
-139.51215 -155.00954 3.8155866 0
-141.0213 -162.2309 3.9418278 0
-146.60983 -158.91008 3.9166203 0
-145.10593 -158.66994 3.9180758 0
-145.05511 -158.5584 3.9963684 0
-140.76906 -154.83525 3.9648862 0
-139.7939 -151.37413 3.9272552 0
-146.08662 -150.29514 3.9134936 0
-136.43864 -167.89613 4.0740128 0
-146.02005 -163.21428 4.0590696 0
-145.77278 -163.18619 4.0815825 0
-135.59758 -157.3035 4.0424471 0
-135.5369 -157.26926 4.0541592 0
-145.79898 -156.50421 4.047369 0
-146.26633 -156.42699 4.0891418 0
-146.06564 -156.36832 4.0956955 0
-136.70618 -156.08403 4.0077286 0
-140.89944 -154.71701 4.0344353 0
-140.70602 -154.73505 4.093667 0
-140.68292 -154.62703 4.0674868 0
-139.54201 -151.36325 4.0515122 0
-144.88411 -158.5587 4.1163044 0
-141.58717 -158.41 4.1039257 0
-135.14133 -157.24419 4.1003256 0
-141.51154 -155.10464 4.1233416 0
-140.81926 -154.74887 4.1002769 0
-139.52242 -151.16963 4.1080608 0
-145.9355 -150.14018 4.1358514 0
-145.12802 -158.58937 4.2554221 0
-141.72554 -158.42102 4.2599125 0
-146.06509 -156.13013 4.2815022 0
-140.4063 -154.70097 4.2588458 0
-140.8532 -154.4218 4.2250791 0
-147.22153 -159.14462 4.3304291 0
-144.90706 -158.5645 4.3599615 0
-140.51636 -154.62466 4.3880653 0
-140.82962 -154.1438 4.3350816 0
-146.39639 -163.3085 4.4895053 0
-146.35788 -156.13318 4.4682212 0
-146.2404 -156.11893 4.4104128 0
-146.13077 -156.11021 4.4210787 0
-146.10405 -156.01003 4.45331 0
-139.49069 -155.71425 4.4070158 0
-139.30594 -155.61571 4.4145317 0
-140.87625 -154.05582 4.4810724 0
-146.33632 -163.29692 4.5195012 0
-143.09055 -161.4455 4.5804729 0
-145.3847 -158.56607 4.5071268 0
-140.8792 -153.86987 4.5676775 0
-140.08041 -151.21471 4.5191255 0
-141.30139 -159.23354 4.6471725 0
-141.47728 -158.34163 4.6946487 0
-135.06235 -157.05423 4.6060987 0
-146.34206 -155.95016 4.6026855 0
-146.21364 -155.86346 4.6883373 0
-146.54927 -163.34354 4.7067442 0
-143.37135 -161.40564 4.7112613 0
-143.44319 -161.39415 4.740953 0
-147.67442 -159.36674 4.7179475 0
-144.97484 -158.44388 4.7880421 0
-134.64561 -156.89607 4.7554064 0
-137.69174 -152.91322 4.7966118 0
-136.27942 -170.26711 4.864819 0
-146.53384 -163.32256 4.8957462 0
-146.42494 -163.27034 4.8260045 0
-146.39278 -163.27371 4.8040452 0
-141.67163 -158.38274 4.8049078 0
-141.59132 -157.90265 4.8174243 0
-141.47127 -157.92403 4.8767157 0
-141.46626 -157.87025 4.8631334 0
-139.88428 -154.37401 4.872901 0
-140.93268 -153.4153 4.8825107 0
-144.84361 -158.40561 4.9662342 0
-144.67117 -158.32422 4.9242039 0
-141.5352 -158.31744 4.940948 0
-141.757 -158.35478 5.0523281 0
-139.70506 -154.23505 5.0509734 0
-138.53813 -153.74368 5.0285087 0
-138.14265 -153.44405 5.0571332 0
-141.2749 -153.2733 5.0465312 0
-137.82954 -153.19514 5.0775719 0
-147.90207 -159.50444 5.1525135 0
-139.44426 -159.45239 5.1121907 0
-144.9361 -158.43024 5.1665878 0
-144.59599 -158.23096 5.1742373 0
-141.49309 -158.16667 5.1494298 0
-134.28886 -156.6416 5.105248 0
-139.51524 -154.2468 5.126574 0
-138.64003 -153.77788 5.1861825 0
-137.93301 -153.18027 5.1218576 0
-143.5874 -161.2971 5.2240958 0
-147.88446 -159.5197 5.2418084 0
-146.14026 -155.50433 5.2407255 0
-138.77524 -153.77521 5.2666068 0
-138.50502 -153.64537 5.2028618 0
-138.13173 -153.39346 5.2638941 0
-141.18269 -153.00186 5.2640982 0
-141.27194 -152.75478 5.2681503 0
-146.64975 -163.47981 5.3005776 0
-143.90274 -161.54819 5.3581715 0
-144.67589 -157.99452 5.3759542 0
-144.491 -157.83168 5.3704405 0
-134.11357 -156.54985 5.3580246 0
-133.36026 -156.50209 5.388649 0
-133.61443 -156.4929 5.3307543 0
-146.16737 -155.11023 5.347764 0
-141.05342 -153.1981 5.3170853 0
-140.89674 -152.09413 5.3357029 0
-140.68913 -162.09187 5.4638472 0
-148.11278 -159.39992 5.4235306 0
-141.48422 -157.28633 5.4987068 0
-146.37383 -154.97484 5.4276195 0
-141.15788 -153.17075 5.4778972 0
-146.26294 -154.9227 5.5650744 0
-146.05522 -154.89693 5.5261173 0
-141.50323 -152.33966 5.5927863 0
-146.47032 -162.75816 5.6572089 0
-146.46371 -155.24356 5.6320753 0
-146.25897 -154.74397 5.6475806 0
-141.42209 -152.26468 5.6970553 0
-141.36115 -152.25053 5.6197238 0
-141.53555 -158.271 5.7210569 0
-141.30658 -158.1909 5.7900138 0
-141.35298 -152.24527 5.7930102 0
-146.99884 -163.90213 5.8140454 0
-147.01079 -163.58031 5.8689642 0
-146.84625 -163.52437 5.8809261 0
-146.74066 -163.38199 5.865675 0
-143.94376 -161.28775 5.8314743 0
-141.40379 -159.6722 5.8870916 0
-144.7428 -157.54507 5.820714 0
-141.49875 -157.03291 5.8415608 0
-133.74133 -155.76706 5.8819556 0
-146.45663 -155.39473 5.8364906 0
-146.24976 -154.49991 5.8449802 0
-137.62332 -152.9825 5.8755369 0
-141.41925 -156.92882 5.9348493 0
-146.39244 -155.36188 5.9710236 0
-133.15257 -154.80898 5.9452114 0
-146.36961 -153.80705 5.9988847 0
-141.5062 -151.54413 5.9352331 0
-141.01703 -151.22964 5.9862189 0
-139.38864 -150.82758 5.9483814 0
-145.92586 -158.85579 6.0303535 0
-145.85648 -158.89406 6.0742569 0
-144.10185 -157.3246 6.0396395 0
-146.28529 -154.08586 6.0560679 0
-146.2169 -153.53432 6.089561 0
-146.12759 -152.85905 6.0882673 0
-141.52965 -152.21487 6.0180631 0
-140.1088 -150.8725 6.0570822 0
-140.05603 -150.78932 6.0709763 0
-144.96405 -150.33345 6.0212646 0
-137.40764 -168.89963 6.1312718 0
-147.2182 -163.67566 6.1064024 0
-147.08916 -163.56627 6.1923599 0
-141.35345 -159.91628 6.1591678 0
-141.37633 -156.64294 6.1330237 0
-146.50244 -156.55981 6.1803913 0
-144.91769 -154.35544 6.1552167 0
-146.15164 -152.97057 6.1674776 0
-144.17293 -161.3517 6.2172713 0
-146.5211 -155.28871 6.2956839 0
-146.20453 -152.76854 6.267333 0
-145.99686 -152.74216 6.2658606 0
-146.16548 -151.49034 6.2242694 0
-140.91769 -150.89999 6.2342296 0
-145.82764 -158.72002 6.37287 0
-144.45639 -158.21545 6.352057 0
-144.26944 -157.14587 6.4578238 0
-144.20151 -156.83145 6.4631391 0
-141.56458 -156.52281 6.4297485 0
-147.12106 -163.25732 6.5312757 0
-146.40643 -154.06818 6.6834641 0
-135.88757 -170.24001 6.7072568 0
-141.27081 -156.32295 6.7644362 0
-147.52161 -163.31635 6.8010049 0
-149.20544 -159.28671 6.8232284 0
-149.16336 -158.94536 6.8976622 0
-146.06517 -158.75764 6.8938055 0
-141.07944 -157.78027 6.8000259 0
-146.4962 -150.75824 6.8738503 0
-145.98328 -159.29413 6.9143596 0
-141.26472 -157.9664 6.9155207 0
-146.51408 -151.29626 6.9469595 0
-142.00613 -160.29144 7.0156932 0
-143.85654 -156.38892 7.0139012 0
-146.72815 -151.36612 7.0260625 0
-139.13206 -172.03587 7.1581411 0
-147.88638 -163.41771 7.1244583 0
-139.70724 -159.91978 7.1298466 0
-141.21028 -157.96982 7.1731625 0
-143.91118 -156.30634 7.1991253 0
-140.33636 -151.07004 7.1978803 0
-142.54668 -150.36446 7.1118059 0
-148.22427 -163.37502 7.2658105 0
-143.87791 -156.24664 7.2763638 0
-140.13016 -151.10896 7.2823143 0
-140.62813 -160.07254 7.448391 0
-146.5574 -153.37801 7.4825172 0
-146.68185 -153.28812 7.4692225 0
-140.37164 -156.88521 7.5581059 0
-148.7012 -163.67239 7.6066999 0
-148.71019 -163.56993 7.6651645 0
-141.08546 -157.87373 7.6060925 0
-147.82248 -163.3141 7.7044735 0
-143.49004 -155.67052 7.7862196 0
-139.18623 -155.48351 7.7966275 0
-147.19563 -152.74657 7.8904777 0
-143.21829 -155.53215 7.936954 0
-147.23187 -152.75905 7.9982944 0
-146.52261 -158.65373 8.0028038 0
-143.38004 -155.54445 8.0791845 0
-143.22234 -155.45058 8.0698385 0
-147.71931 -152.70288 8.0460796 0
-141.27632 -157.91574 8.1037922 0
-147.62894 -152.66859 8.1092844 0
-144.11617 -154.95293 8.4409475 0
-144.27544 -154.68362 8.6615696 0
-144.3149 -154.45332 8.878335 0
-146.73141 -152.68619 8.8503361 0
-144.14551 -154.29271 8.913743 0
-147.2274 -159.29745 9.1340408 0
-146.37973 -152.11081 9.3045397 0
-146.45024 -159.15245 9.5379229 0
-144.55423 -153.94504 9.6355 0
-147.5043 -157.57004 9.7642488 0
