# .PCD v0.7 - Point Cloud Data file format
VERSION 0.7
FIELDS x y z intensity
SIZE 4 4 4 4
TYPE F F F F
COUNT 1 1 1 1
WIDTH 166
HEIGHT 1
VIEWPOINT 0 0 0 1 0 0 0
POINTS 166
DATA ascii
-139.32309 50.768654 -4.5134912 0
-138.27707 50.443565 -4.4675212 0
-139.10849 50.519859 -4.4994211 0
-137.75797 50.830959 -4.1897683 0
-136.25685 62.829193 -4.0154819 0
-137.28473 63.408955 -4.0568538 0
-137.52104 63.638336 -4.0516062 0
-138.39116 64.438171 -4.0709405 0
-138.51682 64.562584 -4.0742483 0
-52.649719 71.388298 -4.0849237 0
-129.92645 51.077847 -3.9035718 0
-130.17424 51.351097 -3.9158714 0
-130.0636 51.312614 -3.9123747 0
-54.722355 69.063705 -3.9629683 0
-53.258312 69.889694 -3.9823217 0
-50.968155 70.679199 -3.9816692 0
-66.24086 60.253155 -3.8461211 0
-124.39832 51.18153 -3.7189403 0
-136.24669 64.592003 -3.6821921 0
-100.07106 78.815865 -3.6971688 0
-136.37837 64.631874 -3.5507259 0
-137.88533 70.927132 -3.5383623 0
-97.297729 81.117599 -3.5711308 0
-56.327946 91.575569 -3.4873447 0
-66.520226 60.683201 -3.3209009 0
-66.450073 60.787594 -3.3279285 0
-133.59926 69.040154 -3.3746316 0
-133.42857 69.030304 -3.3606591 0
-119.27094 51.101456 -3.2027738 0
-66.33448 59.590477 -3.2343948 0
-65.748451 59.947357 -3.2572062 0
-119.51473 51.668522 -3.1954408 0
-119.21313 52.218002 -3.1842985 0
-114.69234 55.099781 -3.1015377 0
-118.29594 55.573044 -3.1496425 0
-66.887619 58.211246 -3.1598418 0
-62.069172 59.334129 -3.1493959 0
-63.094131 59.748955 -3.1925819 0
-62.302097 61.218147 -3.1038516 0
-131.00639 69.883781 -3.1649404 0
-61.752815 59.878403 -3.0251877 0
-109.95937 73.293854 -3.0304847 0
-65.902969 59.445 -2.9498961 0
-51.573311 69.555397 -2.9648638 0
-128.11613 71.541115 -2.9319248 0
-107.33108 74.528175 -2.8390424 0
-67.303406 59.336712 -2.7284355 0
-107.83543 74.63102 -2.7223413 0
-66.013405 58.924366 -2.6548066 0
-65.686073 58.99641 -2.638725 0
-61.815514 59.29599 -2.6871612 0
-61.820084 59.506504 -2.6953058 0
-62.885296 59.33876 -2.5166106 0
-62.95842 59.932259 -2.5426662 0
-77.728004 50.548645 -2.4378114 0
-66.222946 59.174236 -2.4145935 0
-67.086571 59.202003 -2.4461024 0
-66.912743 59.366161 -2.4015465 0
-62.702732 59.391254 -2.4261644 0
-62.153446 59.325619 -2.4830282 0
-53.983662 65.438843 -2.4498794 0
-138.35973 70.59626 -2.4663215 0
-115.55302 71.136185 -2.410099 0
-62.019035 59.438423 -2.3588493 0
-62.287807 60.011703 -2.3035989 0
-59.420849 64.452003 -2.3653426 0
-59.231365 64.569641 -2.350786 0
-58.861065 64.669891 -2.3968306 0
-58.738396 65.000626 -2.3484721 0
-118.53384 51.33794 -2.2854016 0
-62.07851 59.061741 -2.2646418 0
-61.975647 59.095997 -2.262146 0
-61.898563 59.168411 -2.2618568 0
-66.786003 59.699509 -2.2883759 0
-67.029282 59.720726 -2.2919548 0
-66.795631 59.887356 -2.2938151 0
-66.416588 60.414974 -2.2043319 0
-62.765652 59.04892 -2.1163106 0
-77.999748 77.00338 -2.1722088 0
-67.000122 59.76334 -2.0727091 0
-136.43997 64.777237 -2.0824933 0
-58.987694 64.874382 -2.0644376 0
-118.98476 51.75029 -1.9579675 0
-136.40164 64.738045 -1.9752473 0
-136.05666 64.93383 -1.9743205 0
-139.0145 70.098297 -1.9668182 0
-67.429214 58.500938 -1.8300978 0
-63.320827 59.324345 -1.8263388 0
-98.981712 63.343639 -1.8093685 0
-63.130894 59.156601 -1.7173687 0
-61.65366 59.378574 -1.7168323 0
-62.840214 59.479145 -1.7963194 0
-62.742203 59.469269 -1.7046952 0
-62.553196 59.553314 -1.7769599 0
-136.252 64.864983 -1.7248847 0
-136.34671 65.016258 -1.7225623 0
-78.114342 76.882492 -1.7838253 0
-69.860977 52.958187 -1.6444434 0
-67.38797 58.368576 -1.6502329 0
-59.0452 64.666161 -1.6285087 0
-135.94998 64.775421 -1.6356769 0
-63.191174 59.224613 -1.5851485 0
-63.084145 59.249451 -1.573814 0
-63.061714 59.372677 -1.5703754 0
-62.993927 59.421398 -1.5628991 0
-62.946426 59.516056 -1.5571154 0
-62.893166 59.607483 -1.5457356 0
-136.43869 64.888329 -1.5037144 0
-59.073334 64.854172 -1.5786083 0
-136.55435 64.918594 -1.5238148 0
-139.52101 70.722862 -1.564482 0
-62.430679 59.954948 -1.4996213 0
-136.34431 64.941063 -1.4382626 0
-62.006798 59.446415 -1.3640631 0
-61.987774 59.577354 -1.3595105 0
-136.36584 64.719528 -1.353354 0
-136.61803 64.863091 -1.3694434 0
-136.00624 64.867332 -1.3336999 0
-135.84941 64.841255 -1.3876845 0
-58.811527 64.949387 -1.3598616 0
-67.611145 59.080311 -1.2893554 0
-66.511314 59.00322 -1.2678443 0
-67.441193 59.226093 -1.2881159 0
-62.83215 59.67569 -1.2102791 0
-136.18802 64.864174 -1.2938269 0
-135.88022 64.846924 -1.2723004 0
-136.0936 64.98848 -1.2070709 0
-54.054199 65.415977 -1.2850404 0
-139.91522 70.679466 -1.2484109 0
-61.740005 59.325256 -1.1853144 0
-62.101685 59.538376 -1.195075 0
-61.631344 59.643589 -1.1870676 0
-62.412369 60.154461 -1.1187558 0
-136.2513 64.826836 -1.1522965 0
-136.13432 64.846878 -1.1691371 0
-136.06424 64.883537 -1.1310561 0
-62.361404 60.158417 -1.0058575 0
-103.38131 61.025997 -0.98474294 0
-66.496056 59.448784 -0.8055442 0
-62.411823 59.795761 -0.74591494 0
-62.076267 60.035423 -0.63329172 0
-62.100094 59.854279 -0.50640309 0
-61.904327 60.240299 -0.50253665 0
-62.504257 59.318943 -0.41305181 0
-62.335999 59.564045 -0.48287177 0
-62.165833 59.838615 -0.36455372 0
-62.663052 60.07106 -0.39360476 0
-62.252419 60.116253 -0.360313 0
-62.314388 59.71817 -0.1024657 0
-66.65699 60.300819 -0.067028739 0
-67.907455 59.592316 0.011170015 0
-66.748695 59.782051 0.090945214 0
-62.306438 59.784908 0.043035634 0
-62.027 60.058735 0.050330557 0
-67.323395 59.880611 0.13186906 0
-67.188278 59.882408 0.21933709 0
-62.60498 60.560379 0.39457935 0
-67.905327 59.521099 0.45605606 0
-67.536484 59.724922 0.46294001 0
-62.547867 60.699547 0.49282241 0
-67.623077 59.484013 0.82142878 0
-67.220604 59.685757 0.81950146 0
-67.467804 59.711109 0.88834316 0
-137.60805 69.775391 1.7506996 0
-139.87444 70.005455 2.5043192 0
-137.98221 71.466019 4.4836416 0
