# .PCD v0.7 - Point Cloud Data file format
VERSION 0.7
FIELDS x y z intensity
SIZE 4 4 4 4
TYPE F F F F
COUNT 1 1 1 1
WIDTH 1379
HEIGHT 1
VIEWPOINT 0 0 0 1 0 0 0
POINTS 1379
DATA ascii
-177.68826 -153.7959 -7.2269778 0
-183.70226 -152.51801 -7.2144918 0
-184.67686 -152.21832 -7.2568822 0
-176.02512 -152.17564 -7.2944899 0
-175.96198 -151.87379 -7.2776928 0
-179.46292 -151.52094 -7.2495189 0
-179.7323 -151.42659 -7.2148275 0
-177.18623 -151.35809 -7.2975135 0
-182.15221 -151.2695 -7.2147093 0
-182.03928 -151.26689 -7.2155495 0
-181.92693 -151.20325 -7.2849202 0
-185.69989 -151.00174 -7.2334838 0
-182.03796 -150.97325 -7.2570701 0
-186.92303 -150.74219 -7.2563848 0
-181.76862 -150.69881 -7.229382 0
-189.39021 -160.97833 -7.1980376 0
-193.46002 -154.10167 -7.144001 0
-180.06754 -153.33812 -7.1661506 0
-176.87477 -153.37895 -7.1275759 0
-181.15256 -152.05206 -7.1464691 0
-181.49451 -151.9501 -7.1264496 0
-179.00583 -151.91934 -7.1611309 0
-181.20288 -151.88269 -7.1904078 0
-179.62103 -151.43079 -7.1050253 0
-182.1743 -151.38936 -7.1159992 0
-181.90096 -151.20911 -7.1376843 0
-185.65578 -151.04747 -7.1416745 0
-181.81154 -150.77034 -7.1934004 0
-182.03796 -150.66177 -7.1653466 0
-187.2236 -150.5273 -7.1967974 0
-179.65521 -150.4272 -7.1789379 0
-182.89142 -150.05061 -7.1182013 0
-177.06628 -168.89468 -7.0509796 0
-176.80606 -168.88895 -7.0726247 0
-189.49902 -160.58948 -7.0980096 0
-189.67105 -160.06851 -7.0706339 0
-152.04364 -157.02211 -7.0425591 0
-179.5455 -154.84703 -7.0678787 0
-179.49306 -154.40927 -7.056705 0
-179.51799 -154.31885 -7.0916567 0
-179.35632 -154.26987 -7.0573254 0
-177.66969 -153.94919 -7.0607343 0
-195.0067 -153.70833 -7.0274644 0
-176.64633 -153.57788 -7.0314598 0
-187.21387 -152.62978 -7.0579677 0
-182.99559 -152.38158 -7.0117755 0
-151.05104 -152.09593 -7.0881515 0
-182.92226 -151.77188 -7.0688524 0
-177.53198 -151.41121 -7.0170641 0
-177.03397 -151.36266 -7.0540633 0
-181.66673 -151.29283 -7.0945249 0
-184.40472 -150.61557 -7.0376406 0
-197.65114 -150.15433 -7.0650516 0
-182.71748 -150.10033 -7.0168848 0
-183.04176 -150.02719 -7.0946283 0
-197.56177 -159.66176 -6.954432 0
-179.72256 -154.29634 -6.9223952 0
-183.65456 -152.60884 -6.9258151 0
-177.34201 -152.5892 -6.9241753 0
-176.93701 -152.57301 -6.9767904 0
-185.49086 -152.10078 -6.907207 0
-197.83591 -152.0282 -6.9297004 0
-179.41251 -151.50299 -6.9478407 0
-179.55963 -151.42195 -6.972116 0
-179.43549 -151.44627 -6.9636569 0
-151.95592 -150.78708 -6.9993954 0
-179.75291 -150.54124 -6.9130073 0
-193.50354 -163.09828 -6.8478804 0
-198.61736 -160.25328 -6.8253903 0
-182.65637 -153.71523 -6.8196268 0
-178.34767 -153.67722 -6.8565779 0
-180.33266 -153.2374 -6.8525 0
-180.27972 -153.20219 -6.8514409 0
-176.95041 -152.54173 -6.8271933 0
-184.68495 -152.36168 -6.8676128 0
-181.17 -152.3187 -6.8470888 0
-181.2261 -152.24184 -6.8442578 0
-179.23253 -151.57993 -6.8977423 0
-185.92888 -151.43109 -6.8823667 0
-179.6871 -151.4465 -6.8819017 0
-179.38174 -151.46562 -6.827354 0
-177.39519 -151.41364 -6.8892813 0
-177.68285 -151.01657 -6.8118901 0
-177.5201 -150.96982 -6.8815689 0
-152.108 -150.97014 -6.8993807 0
-151.97517 -150.82529 -6.8872337 0
-181.69543 -150.71983 -6.8838177 0
-181.79073 -150.68135 -6.8149004 0
-169.30792 -150.52045 -6.8116474 0
-185.24286 -150.20952 -6.8995361 0
-176.7406 -150.16411 -6.8437076 0
-172.70088 -150.17761 -6.8900156 0
-187.31096 -150.00554 -6.8351531 0
-197.97971 -160.69948 -6.7431402 0
-168.00398 -155.92583 -6.7750044 0
-199.57991 -153.1931 -6.737133 0
-199.64159 -153.08899 -6.7342453 0
-181.43866 -152.05652 -6.7620173 0
-181.36945 -152.02832 -6.7771935 0
-185.36288 -151.86127 -6.7681437 0
-198.31844 -151.54767 -6.7598152 0
-179.46857 -151.53632 -6.7169428 0
-179.67926 -151.43108 -6.7093811 0
-181.83533 -151.16595 -6.7848945 0
-181.78259 -150.98827 -6.7220716 0
-181.93036 -150.7811 -6.703536 0
-184.34213 -150.63536 -6.7491932 0
-181.6797 -150.6906 -6.7769289 0
-179.78214 -150.48318 -6.7429552 0
-178.98569 -150.33919 -6.7511311 0
-182.53867 -150.20248 -6.7121077 0
-182.9286 -153.92621 -6.6357822 0
-182.98622 -153.89009 -6.6369014 0
-180.28018 -153.24222 -6.6932116 0
-182.3235 -153.01978 -6.6880927 0
-181.21738 -152.28435 -6.6384578 0
-181.18988 -152.23505 -6.6139755 0
-181.15076 -152.1364 -6.6223536 0
-181.49951 -152.07205 -6.6178646 0
-179.3683 -151.45679 -6.6723967 0
-179.57199 -151.38535 -6.6732349 0
-181.79776 -151.28136 -6.6915083 0
-181.99785 -151.12761 -6.6704926 0
-187.23946 -150.89058 -6.6814346 0
-181.90131 -150.7207 -6.6216941 0
-181.75978 -150.61391 -6.6735144 0
-151.08171 -150.43767 -6.6152673 0
-187.55766 -150.30565 -6.6985316 0
-186.49014 -150.1075 -6.6732259 0
-183.29219 -152.46671 -6.5754151 0
-179.33044 -151.51279 -6.5819101 0
-182.03583 -151.27545 -6.5882988 0
-181.86014 -151.29089 -6.5374074 0
-181.79872 -151.20837 -6.5090303 0
-200.019 -150.97954 -6.5981464 0
-181.81372 -150.69112 -6.5437393 0
-179.42786 -150.18314 -6.5881963 0
-179.36594 -150.1203 -6.5102563 0
-151.04263 -150.19043 -6.500566 0
-180.88591 -169.77769 -6.4941769 0
-165.12918 -153.74237 -6.4147372 0
-199.17657 -152.82549 -6.4798079 0
-177.24951 -152.65076 -6.4812517 0
-181.12604 -152.21609 -6.4655056 0
-181.36063 -152.11086 -6.4452701 0
-179.50639 -151.44031 -6.4628811 0
-182.15218 -151.24088 -6.4985895 0
-181.85889 -151.27489 -6.4202337 0
-151.64854 -151.14279 -6.4342961 0
-168.38226 -150.83789 -6.4326105 0
-151.16141 -150.40858 -6.4700098 0
-185.68442 -150.30704 -6.4345565 0
-182.4639 -150.23431 -6.443634 0
-179.19234 -150.15077 -6.4543862 0
-150.89607 -150.07593 -6.4964447 0
-199.11508 -162.93639 -6.3094101 0
-183.84708 -152.72017 -6.3012576 0
-181.36609 -152.1091 -6.370441 0
-179.61559 -151.51622 -6.3936219 0
-179.45271 -151.42006 -6.3455677 0
-179.39442 -151.47935 -6.3812466 0
-179.28055 -151.46884 -6.3533835 0
-180.14568 -150.44513 -6.336165 0
-182.38742 -150.26524 -6.3956451 0
-179.16519 -150.04971 -6.3829627 0
-187.30814 -166.86752 -6.2677107 0
-196.21727 -166.127 -6.2676754 0
-188.38728 -166.12186 -6.2906423 0
-196.37811 -164.64029 -6.2563539 0
-190.09483 -160.78194 -6.2792377 0
-176.52959 -153.15549 -6.2815127 0
-182.95808 -152.51175 -6.2628827 0
-181.32452 -152.21686 -6.2898235 0
-179.4501 -151.43114 -6.2339931 0
-181.89497 -151.20761 -6.2700787 0
-152.21028 -150.95589 -6.269259 0
-151.86061 -150.72864 -6.2369695 0
-151.9364 -150.66939 -6.2537575 0
-181.91762 -150.59972 -6.2233572 0
-181.5585 -152.32571 -6.1619296 0
-181.1924 -152.23299 -6.1560693 0
-182.82312 -151.61147 -6.13621 0
-182.27643 -151.5121 -6.135129 0
-182.25897 -151.32964 -6.1306071 0
-179.30972 -151.38664 -6.1285744 0
-181.91626 -151.17047 -6.1533179 0
-181.87259 -150.56247 -6.1321368 0
-174.59256 -150.51257 -6.1966472 0
-175.6366 -150.46434 -6.143054 0
-172.22833 -150.37416 -6.1728797 0
-197.88805 -167.45058 -6.0185423 0
-195.4761 -165.41805 -6.0284185 0
-201.63676 -165.31912 -6.0231252 0
-184.04712 -153.80504 -6.0166278 0
-174.97154 -153.86819 -6.0184498 0
-174.14839 -152.96571 -6.0302601 0
-181.23428 -152.41078 -6.0818276 0
-181.29106 -152.39207 -6.0605659 0
-179.44485 -151.51195 -6.0647597 0
-181.92902 -151.24683 -6.0098739 0
-179.83881 -151.10722 -6.0290318 0
-179.62357 -151.11446 -6.022253 0
-152.1281 -150.94913 -6.0307736 0
-181.83769 -150.6358 -6.0606256 0
-185.19247 -150.53795 -6.0893993 0
-182.31168 -150.56126 -6.0784111 0
-182.14647 -150.53049 -6.0973392 0
-179.02513 -150.55312 -6.031589 0
-151.82681 -150.5862 -6.0579128 0
-151.85687 -150.49904 -6.0291777 0
-183.25513 -150.18088 -6.0204592 0
-194.43916 -162.00421 -5.9428701 0
-193.89616 -160.31215 -5.9972997 0
-169.22466 -155.78404 -5.9729638 0
-181.09831 -152.48776 -5.9064498 0
-176.98482 -151.43587 -5.9763422 0
-181.99167 -151.23438 -5.992732 0
-152.17368 -150.98076 -5.9892945 0
-182.1326 -150.42613 -5.9799237 0
-202.07338 -166.22685 -5.899579 0
-207.01108 -164.79823 -5.8269796 0
-192.32521 -160.78226 -5.8074126 0
-151.80275 -160.57971 -5.829977 0
-190.16353 -160.28058 -5.8634152 0
-177.56487 -153.81889 -5.8820124 0
-181.61644 -152.49352 -5.8006005 0
-181.22296 -152.37018 -5.8928299 0
-177.30254 -151.63834 -5.8753605 0
-179.30022 -151.55096 -5.8531666 0
-177.46187 -151.05582 -5.8254051 0
-179.57527 -150.90121 -5.849844 0
-184.084 -150.85135 -5.8176408 0
-151.82359 -150.70128 -5.8821936 0
-181.76309 -150.5865 -5.8804722 0
-151.9165 -150.55788 -5.8775606 0
-188.83759 -168.05025 -5.7274041 0
-195.34422 -165.29781 -5.7781148 0
-190.74989 -160.20953 -5.7443075 0
-191.49391 -159.67566 -5.7571859 0
-181.4241 -152.39543 -5.7952833 0
-209.31198 -151.82898 -5.7479296 0
-174.50894 -151.77922 -5.7112169 0
-182.32654 -151.65068 -5.7135167 0
-179.21281 -151.44514 -5.7308059 0
-177.03098 -151.41881 -5.7427754 0
-177.07872 -151.3134 -5.7016325 0
-182.00357 -151.2226 -5.7027197 0
-179.39566 -151.00481 -5.7366505 0
-152.04898 -151.0489 -5.7132134 0
-152.27788 -150.96336 -5.7459893 0
-151.7162 -150.69652 -5.7339535 0
-151.99652 -150.47426 -5.7301641 0
-173.11263 -150.15546 -5.7540245 0
-173.05994 -150.12411 -5.7553883 0
-187.88283 -167.90111 -5.6593771 0
-187.55452 -167.76645 -5.6375713 0
-194.46222 -162.47942 -5.681025 0
-151.02336 -156.52132 -5.6384377 0
-209.50301 -156.35294 -5.6029758 0
-155.81311 -154.83315 -5.6019068 0
-177.42953 -153.74153 -5.6871367 0
-177.63176 -153.52673 -5.6869702 0
-182.29655 -151.46935 -5.6073174 0
-186.93184 -151.04431 -5.6156325 0
-152.03531 -151.04509 -5.6516485 0
-152.28329 -150.97293 -5.6666336 0
-151.69908 -150.66571 -5.6523476 0
-151.56915 -150.67657 -5.6734357 0
-182.28352 -150.43956 -5.6931257 0
-173.57819 -150.29906 -5.6427617 0
-170.06424 -150.15785 -5.6409845 0
-187.94391 -150.01175 -5.6610494 0
-182.60976 -150.03688 -5.6092196 0
-191.41382 -159.67654 -5.5360045 0
-168.79587 -155.94955 -5.5396595 0
-212.25887 -152.00587 -5.5772729 0
-182.25043 -151.63672 -5.5458055 0
-179.38821 -151.49048 -5.5494695 0
-179.18231 -151.40689 -5.5754375 0
-182.15942 -151.12491 -5.5361776 0
-181.82626 -150.50954 -5.5873699 0
-181.64545 -150.47357 -5.5538583 0
-189.43411 -168.10522 -5.4745417 0
-207.01703 -165.41046 -5.4403772 0
-194.34918 -162.30664 -5.4654498 0
-164.54555 -156.29216 -5.4844618 0
-184.2851 -153.37329 -5.4137859 0
-180.31105 -153.30682 -5.4972515 0
-179.37154 -152.85451 -5.4502859 0
-181.09482 -152.66705 -5.4538741 0
-177.10207 -152.67395 -5.4724383 0
-181.37453 -152.51862 -5.483027 0
-179.26595 -151.43698 -5.40944 0
-182.04736 -151.2068 -5.4415898 0
-182.18445 -151.17496 -5.4081368 0
-174.47408 -151.08226 -5.4706912 0
-181.25388 -150.39206 -5.4462481 0
-198.67485 -188.91415 -5.3478174 0
-191.5898 -164.0722 -5.3159375 0
-151.98608 -161.62833 -5.3937736 0
-159.51024 -153.79247 -5.3905687 0
-211.39197 -153.53004 -5.3638453 0
-181.22115 -152.65526 -5.3197527 0
-181.08115 -152.68411 -5.3318591 0
-209.58519 -151.63412 -5.3110723 0
-175.83476 -151.67876 -5.3953414 0
-179.34593 -151.40675 -5.3394561 0
-181.8735 -151.32732 -5.338378 0
-182.29253 -151.261 -5.384481 0
-182.09357 -151.21194 -5.3745522 0
-181.86334 -151.25681 -5.3996277 0
-173.79051 -151.2923 -5.3750172 0
-182.0862 -151.15947 -5.3465457 0
-175.69273 -151.1891 -5.3312454 0
-220.64485 -151.03078 -5.3553462 0
-178.86613 -151.02713 -5.3325214 0
-151.80682 -151.05943 -5.35145 0
-182.6646 -150.91237 -5.3658533 0
-220.37648 -150.82635 -5.3467212 0
-152.08968 -150.89821 -5.38625 0
-183.23338 -150.76917 -5.3875237 0
-177.42751 -150.61409 -5.3846321 0
-181.84193 -150.46822 -5.3346615 0
-224.74561 -150.10767 -5.3095722 0
-202.54648 -168.98146 -5.234529 0
-195.1868 -165.36826 -5.2037964 0
-152.41006 -157.01248 -5.2618518 0
-152.32726 -156.44264 -5.228663 0
-174.40752 -153.96901 -5.2168121 0
-177.16132 -152.71559 -5.253149 0
-189.98203 -152.03253 -5.2578912 0
-223.64696 -151.48097 -5.2297997 0
-223.53296 -151.38829 -5.225162 0
-181.9426 -151.29126 -5.238956 0
-222.83832 -151.11418 -5.2152491 0
-150.26598 -151.13504 -5.2667518 0
-182.14961 -151.0367 -5.2628574 0
-185.60608 -150.92091 -5.2708163 0
-183.91591 -150.9628 -5.285531 0
-179.10953 -150.96358 -5.2103643 0
-224.25731 -150.71439 -5.2603731 0
-217.66476 -150.45776 -5.272346 0
-181.7408 -150.46455 -5.287931 0
-169.41536 -150.36678 -5.2024703 0
-181.07024 -150.2659 -5.2420454 0
-151.0641 -150.28304 -5.223618 0
-222.74251 -150.0433 -5.2321081 0
-216.11237 -150.06114 -5.2198744 0
-201.51102 -170.40344 -5.1968908 0
-212.53487 -167.73763 -5.171896 0
-193.99329 -162.10973 -5.1974998 0
-192.95886 -159.34319 -5.102962 0
-181.42261 -152.52666 -5.1930408 0
-224.29529 -152.38579 -5.1012425 0
-228.02226 -151.74585 -5.1436157 0
-227.43835 -151.78725 -5.1390076 0
-226.85046 -151.51053 -5.1682377 0
-226.74557 -151.51077 -5.1628375 0
-175.90923 -151.56801 -5.1338234 0
-179.05888 -151.46519 -5.1522384 0
-175.48477 -151.48265 -5.1766868 0
-182.22437 -151.3042 -5.1720552 0
-219.04625 -151.1149 -5.1307979 0
-220.23865 -150.77562 -5.1542654 0
-178.84653 -150.73074 -5.1708603 0
-225.2207 -150.68538 -5.1005754 0
-223.00134 -150.68996 -5.1387768 0
-223.41298 -150.52977 -5.121727 0
-183.81459 -150.52216 -5.1504102 0
-220.21159 -150.47032 -5.1522408 0
-224.45895 -150.33667 -5.1624799 0
-151.83481 -150.35715 -5.1958933 0
-178.37791 -150.02859 -5.1171379 0
-193.73689 -161.39441 -5.0961099 0
-168.18953 -156.56854 -5.0759177 0
-165.01288 -156.5817 -5.0555458 0
-212.89124 -155.98563 -5.0406995 0
-153.73788 -155.50471 -5.0760789 0
-166.47142 -153.60364 -5.0288076 0
-221.29538 -152.96712 -5.0031838 0
-181.16672 -152.66718 -5.0604725 0
-181.32076 -152.56293 -5.0787797 0
-171.08537 -152.51685 -5.0388212 0
-189.86816 -152.44037 -5.0562835 0
-188.9164 -151.97998 -5.0595574 0
-230.77682 -151.8643 -5.0636106 0
-189.23061 -151.88506 -5.0601768 0
-162.6288 -151.63518 -5.0651646 0
-175.85777 -151.5661 -5.0645161 0
-227.95752 -151.37624 -5.0547152 0
-182.31886 -151.32481 -5.0371108 0
-165.76155 -151.35646 -5.0384831 0
-226.11714 -151.28583 -5.0080099 0
-228.85394 -151.10127 -5.0310779 0
-183.62227 -151.12488 -5.0064893 0
-182.01169 -151.15594 -5.0141726 0
-175.75525 -151.15785 -5.0632753 0
-165.40561 -151.19191 -5.0121074 0
-224.12566 -151.09857 -5.0377455 0
-183.67152 -151.05389 -5.0088978 0
-182.19427 -151.06998 -5.0456905 0
-171.2851 -151.01984 -5.0047827 0
-152.04855 -150.92169 -5.0396743 0
-176.89403 -150.79605 -5.0110574 0
-183.20349 -150.59018 -5.0255527 0
-166.72658 -150.54004 -5.0351028 0
-151.86246 -150.36574 -5.0275526 0
-181.74927 -150.28824 -5.0081663 0
-167.42764 -150.21518 -5.0697312 0
-168.76933 -150.18196 -5.0451818 0
-167.63478 -150.11302 -5.0690999 0
-178.25502 -150.0901 -5.0964007 0
-167.4373 -150.08478 -5.0470848 0
-166.67546 -150.08336 -5.0583973 0
-183.97954 -177.86932 -4.9944119 0
-202.5481 -172.99019 -4.9187264 0
-207.77019 -168.53691 -4.9854989 0
-191.51817 -164.29303 -4.9171567 0
-191.52357 -164.18935 -4.957541 0
-191.29982 -164.12949 -4.9420934 0
-165.03345 -156.60951 -4.9382319 0
-164.07555 -156.47832 -4.9924922 0
-168.50072 -156.09416 -4.9737439 0
-170.17677 -154.9054 -4.9445906 0
-163.01338 -154.92778 -4.9022222 0
-226.26086 -153.035 -4.9768395 0
-166.69931 -153.01593 -4.9862118 0
-218.08391 -152.05956 -4.9078298 0
-227.38097 -151.86151 -4.9688969 0
-165.72911 -151.48918 -4.9881701 0
-188.03622 -151.34753 -4.9532189 0
-229.09952 -151.20317 -4.9677811 0
-152.74173 -151.22101 -4.9755812 0
-182.00615 -151.14725 -4.9835911 0
-218.90942 -151.07982 -4.9506688 0
-219.1501 -150.99104 -4.9422922 0
-178.21617 -150.87392 -4.9632215 0
-182.57912 -150.64795 -4.9917769 0
-229.51852 -150.52817 -4.9895949 0
-177.88242 -150.49425 -4.9130521 0
-178.10384 -150.38142 -4.9279594 0
-210.14836 -168.65533 -4.8417163 0
-210.22301 -168.10109 -4.8098788 0
-212.13312 -167.86659 -4.8471355 0
-214.46117 -157.25314 -4.8642464 0
-223.02493 -155.26254 -4.8021822 0
-182.71025 -155.04482 -4.8485885 0
-229.00299 -154.16739 -4.8111835 0
-229.33871 -153.98491 -4.8391042 0
-168.10994 -153.67766 -4.8196344 0
-179.9857 -153.45937 -4.8096552 0
-248.57187 -153.12604 -4.8525462 0
-222.72336 -153.11584 -4.8666358 0
-158.91397 -153.18402 -4.8824553 0
-248.88553 -153.0518 -4.8160014 0
-186.71609 -153.06631 -4.8977637 0
-236.89743 -152.85786 -4.8124256 0
-181.10692 -152.80598 -4.8799977 0
-181.42223 -152.74513 -4.8564272 0
-248.60806 -152.63188 -4.8564968 0
-248.06732 -152.56958 -4.8415036 0
-243.937 -152.50726 -4.8324709 0
-168.68373 -152.40416 -4.8980837 0
-228.70712 -152.30885 -4.8749895 0
-212.40521 -152.30725 -4.8732891 0
-249.23979 -152.20691 -4.8770857 0
-223.03529 -152.27345 -4.8062353 0
-220.76332 -152.28859 -4.807282 0
-249.30032 -152.18385 -4.8795614 0
-222.59258 -152.05499 -4.8953433 0
-177.52164 -151.82555 -4.878159 0
-169.91193 -151.7635 -4.8591342 0
-249.81161 -151.6349 -4.8946204 0
-238.82259 -151.57845 -4.8517375 0
-183.08658 -151.56267 -4.8853755 0
-243.20139 -151.40152 -4.8115516 0
-243.75015 -151.30504 -4.8058081 0
-151.65193 -151.27214 -4.8818197 0
-176.24594 -151.09143 -4.8045807 0
-175.56621 -150.96115 -4.8895817 0
-239.26532 -150.77238 -4.8763061 0
-177.12483 -150.76172 -4.8321333 0
-183.34431 -150.49231 -4.8983064 0
-216.15311 -150.31943 -4.8296118 0
-216.0023 -150.39105 -4.8137288 0
-169.81763 -150.1561 -4.8903546 0
-197.35489 -173.66603 -4.7395902 0
-168.86395 -155.98517 -4.7610731 0
-232.73119 -155.59241 -4.7453656 0
-240.38509 -154.76639 -4.7098384 0
-227.0117 -154.61958 -4.7409749 0
-229.34514 -154.35916 -4.7409434 0
-248.46793 -153.94241 -4.7953787 0
-239.93695 -153.90268 -4.7319307 0
-222.08359 -153.97311 -4.7496791 0
-248.41966 -153.8903 -4.7897983 0
-221.8786 -153.56812 -4.7071505 0
-225.24632 -153.4227 -4.7110105 0
-225.62584 -153.31651 -4.7358651 0
-223.01819 -153.31892 -4.7128868 0
-180.24927 -153.3176 -4.7836051 0
-242.82968 -152.86693 -4.7584858 0
-221.52353 -152.80283 -4.746748 0
-181.17535 -152.77043 -4.7688928 0
-247.38243 -152.54482 -4.756423 0
-247.18851 -152.42177 -4.7700257 0
-234.89822 -152.22301 -4.7363949 0
-245.00035 -152.10907 -4.7076459 0
-237.74782 -152.08885 -4.7135563 0
-221.19522 -152.06113 -4.7880201 0
-245.49367 -151.7197 -4.7889071 0
-182.23157 -151.15639 -4.7948236 0
-182.127 -151.15271 -4.7567344 0
-151.91481 -150.89716 -4.7184558 0
-167.22545 -150.34814 -4.7300229 0
-151.73795 -150.31325 -4.7624731 0
-185.4525 -150.1843 -4.7768393 0
-177.7128 -150.11827 -4.7190781 0
-173.98883 -150.07211 -4.778265 0
-208.08319 -169.35342 -4.6689038 0
-210.98479 -168.79231 -4.6284738 0
-209.98825 -168.70227 -4.6669998 0
-169.46512 -158.33658 -4.6976933 0
-152.4498 -156.81404 -4.6105957 0
-235.75865 -156.20827 -4.6179948 0
-230.24123 -156.1824 -4.656424 0
-231.40428 -155.9431 -4.6962047 0
-245.98825 -155.50826 -4.6293488 0
-229.22913 -155.47018 -4.6696134 0
-225.58963 -155.32291 -4.6340294 0
-239.50066 -155.063 -4.6927185 0
-163.17758 -154.85223 -4.6200705 0
-162.96407 -154.80777 -4.6140513 0
-223.71368 -154.74471 -4.6924696 0
-239.92032 -153.96944 -4.6964827 0
-225.64467 -153.99066 -4.6891642 0
-247.97476 -153.84329 -4.6764336 0
-180.41469 -153.2868 -4.6767116 0
-180.39169 -153.27487 -4.6790204 0
-243.43469 -153.13268 -4.6266513 0
-223.40752 -152.9113 -4.6948814 0
-242.89693 -152.72206 -4.6544647 0
-181.30733 -152.74675 -4.6506429 0
-181.36435 -152.64343 -4.6214542 0
-245.30922 -152.50203 -4.6593223 0
-245.22101 -152.42513 -4.6031003 0
-237.62251 -152.4447 -4.62886 0
-234.88428 -152.12709 -4.6089168 0
-238.20506 -152.02629 -4.6471272 0
-239.03191 -151.87866 -4.6603065 0
-219.38065 -151.82391 -4.6605492 0
-240.23776 -151.75832 -4.6572533 0
-179.01297 -151.63683 -4.6321387 0
-179.40538 -151.56918 -4.6309452 0
-179.36313 -151.58357 -4.6259475 0
-221.8121 -151.4855 -4.6886754 0
-179.05586 -151.49115 -4.6366038 0
-175.19749 -151.43344 -4.6939354 0
-152.87845 -151.2234 -4.6147232 0
-151.39891 -151.27058 -4.673224 0
-181.98026 -151.09267 -4.6114388 0
-165.07782 -151.02748 -4.6294417 0
-186.18367 -150.99312 -4.6443338 0
-186.83839 -150.8535 -4.6125402 0
-177.12993 -150.74097 -4.6187644 0
-181.75426 -150.32225 -4.6779218 0
-181.56879 -150.3161 -4.69663 0
-178.8353 -150.31128 -4.6024294 0
-169.74663 -150.27701 -4.6365552 0
-225.17053 -157.78445 -4.5778708 0
-225.13687 -157.14105 -4.5996122 0
-168.05185 -156.70929 -4.5945568 0
-224.51738 -156.34877 -4.5905089 0
-247.7375 -156.10687 -4.5190535 0
-248.207 -155.90076 -4.5675716 0
-248.14763 -155.9462 -4.5633311 0
-223.96515 -155.91165 -4.5780139 0
-234.07666 -155.83305 -4.5638156 0
-226.32832 -155.77434 -4.5156083 0
-247.37302 -155.64894 -4.5587425 0
-238.8952 -155.64352 -4.5726633 0
-247.08379 -155.48692 -4.559741 0
-246.99835 -154.83606 -4.5758495 0
-221.41069 -154.79938 -4.5363545 0
-227.30984 -154.1776 -4.5499816 0
-243.94588 -153.84517 -4.5147004 0
-241.72447 -153.59766 -4.5551577 0
-243.71399 -153.24445 -4.5180225 0
-235.31779 -153.25749 -4.5726604 0
-243.69095 -153.11501 -4.5827641 0
-181.50601 -152.85426 -4.5742755 0
-181.23831 -152.69589 -4.5673304 0
-235.25504 -152.52608 -4.5565071 0
-220.82744 -152.50377 -4.5664115 0
-237.55331 -152.42606 -4.5974722 0
-236.81575 -152.48438 -4.5414577 0
-170.6886 -152.43355 -4.5792999 0
-237.46863 -152.39392 -4.5810633 0
-237.1877 -152.25125 -4.5354047 0
-221.01471 -152.22548 -4.5760813 0
-237.66949 -151.65581 -4.5504332 0
-179.32437 -151.64426 -4.5020175 0
-178.98982 -151.66167 -4.5751939 0
-169.97603 -151.48315 -4.5908771 0
-235.98587 -151.30779 -4.5915236 0
-176.088 -151.21596 -4.5754681 0
-170.57646 -151.2433 -4.5541215 0
-182.14148 -151.15659 -4.5586739 0
-176.04448 -151.03584 -4.5379629 0
-234.91859 -150.96863 -4.5830402 0
-175.50508 -150.85928 -4.5277033 0
-152.08502 -150.88635 -4.5748239 0
-176.35802 -150.79726 -4.5532889 0
-174.94308 -150.78905 -4.541378 0
-186.67249 -150.66768 -4.5388141 0
-177.14488 -150.6646 -4.5150599 0
-244.82495 -150.57726 -4.5521979 0
-173.92952 -150.31889 -4.5117416 0
-181.7681 -150.2906 -4.5438957 0
-178.35616 -150.29254 -4.5807004 0
-195.09131 -165.39429 -4.4593873 0
-240.4901 -158.01935 -4.4129715 0
-232.76431 -158.05936 -4.4167113 0
-232.6566 -157.95195 -4.4172401 0
-247.34087 -157.40526 -4.45751 0
-244.79582 -157.42763 -4.4475446 0
-246.79816 -157.16771 -4.4588413 0
-247.58871 -156.97334 -4.4773054 0
-247.49207 -156.87643 -4.424335 0
-249.21477 -156.60066 -4.4109812 0
-247.95155 -156.62187 -4.4282165 0
-247.87698 -156.48056 -4.4158535 0
-248.81642 -156.02475 -4.4208488 0
-247.92566 -156.07523 -4.4434481 0
-247.86348 -156.01271 -4.4051261 0
-249.88739 -155.73569 -4.4617019 0
-246.90103 -155.62022 -4.4772897 0
-247.02859 -155.58478 -4.4805598 0
-162.01811 -155.44693 -4.4899187 0
-244.26421 -154.22684 -4.4379511 0
-244.18108 -154.2836 -4.4660258 0
-240.58658 -154.13368 -4.4279728 0
-244.6873 -154.08051 -4.461699 0
-165.63538 -153.79834 -4.4343734 0
-241.72719 -153.6356 -4.4355845 0
-243.68922 -153.20103 -4.4649124 0
-246.98953 -153.10075 -4.490509 0
-243.48958 -153.03691 -4.426548 0
-243.50008 -152.97392 -4.4551668 0
-243.42831 -152.95717 -4.4954586 0
-170.80428 -152.944 -4.4525809 0
-242.621 -152.75645 -4.4486022 0
-169.67984 -151.97014 -4.4265561 0
-235.06889 -151.86452 -4.4644356 0
-234.81548 -151.6299 -4.4878764 0
-179.26849 -151.5038 -4.4412098 0
-235.8994 -151.32307 -4.4798241 0
-181.97174 -151.30496 -4.4586711 0
-182.02858 -151.21635 -4.4655824 0
-181.88318 -151.26126 -4.4545598 0
-182.21173 -151.1091 -4.4555068 0
-182.06235 -151.11523 -4.4297256 0
-177.47971 -150.93391 -4.4037571 0
-175.10724 -150.76164 -4.4531322 0
-175.68723 -150.6187 -4.4583149 0
-169.9735 -150.5134 -4.4213014 0
-175.67873 -150.37775 -4.4846015 0
-174.47461 -150.31516 -4.45047 0
-240.08035 -150.17224 -4.4669518 0
-181.79758 -150.07613 -4.455966 0
-215.28288 -158.90503 -4.3455815 0
-230.05315 -158.53387 -4.3610744 0
-235.17319 -158.46631 -4.3347015 0
-230.42308 -158.31213 -4.3720708 0
-230.17139 -158.38651 -4.3662577 0
-231.33727 -158.13257 -4.3912511 0
-231.04645 -158.16606 -4.3856592 0
-245.43152 -158.07652 -4.3681903 0
-234.18184 -158.07161 -4.3320432 0
-231.08357 -157.86453 -4.3738842 0
-246.06522 -157.7589 -4.3370709 0
-234.47479 -157.76547 -4.3696084 0
-223.42188 -157.60144 -4.317194 0
-247.54974 -157.543 -4.3216438 0
-236.32912 -157.31097 -4.3655276 0
-249.48877 -157.18924 -4.3162589 0
-228.10617 -157.18964 -4.3022327 0
-248.07851 -156.8206 -4.399848 0
-223.03493 -156.86334 -4.3134298 0
-230.10582 -156.79601 -4.3944097 0
-249.92297 -156.54439 -4.3826709 0
-249.80666 -156.44901 -4.384572 0
-249.84471 -155.87027 -4.3882923 0
-249.68448 -155.75012 -4.3993502 0
-162.37614 -155.77692 -4.3303971 0
-244.44308 -154.51064 -4.311007 0
-244.51532 -154.27534 -4.3195119 0
-245.35341 -154.10913 -4.3107486 0
-244.28485 -154.13889 -4.3357711 0
-220.65982 -153.95859 -4.383606 0
-236.93697 -153.41124 -4.3888159 0
-243.29601 -153.30945 -4.3393416 0
-237.45978 -153.35539 -4.3455997 0
-177.76213 -153.37006 -4.3607788 0
-243.17719 -153.13052 -4.393899 0
-243.61937 -153.09076 -4.3449411 0
-243.59241 -153.06898 -4.3982868 0
-243.16573 -152.94125 -4.3968925 0
-177.83337 -152.83075 -4.3237906 0
-237.37755 -152.74138 -4.3734479 0
-181.69098 -152.78581 -4.3872318 0
-177.04431 -152.68556 -4.3377361 0
-237.06151 -152.39558 -4.3763185 0
-237.17743 -152.24063 -4.3943954 0
-178.7746 -151.85396 -4.3505383 0
-178.96913 -151.54401 -4.3538132 0
-150.97443 -151.34039 -4.3669376 0
-234.65234 -151.11526 -4.3241687 0
-182.12228 -151.15004 -4.3128862 0
-181.90977 -151.12143 -4.3106351 0
-177.7643 -150.96822 -4.3957148 0
-152.01895 -150.89941 -4.3326058 0
-182.47839 -150.56595 -4.3375168 0
-175.80798 -150.47984 -4.308845 0
-169.54822 -150.4852 -4.374783 0
-188.41339 -150.33292 -4.3394456 0
-169.12314 -150.03725 -4.3792763 0
-165.87482 -150.07196 -4.3263516 0
-185.66501 -175.21001 -4.2882118 0
-215.20009 -170.87231 -4.2231579 0
-243.29048 -159.69925 -4.2181606 0
-246.00822 -159.51616 -4.2391639 0
-242.94781 -159.51971 -4.2155099 0
-246.32823 -159.22168 -4.257514 0
-243.84258 -159.16068 -4.2343383 0
-234.52237 -159.07022 -4.231873 0
-246.94299 -158.96046 -4.2581053 0
-235.0916 -158.91954 -4.2670383 0
-234.17314 -158.99577 -4.2555928 0
-232.46461 -158.98387 -4.2480559 0
-247.23299 -158.72189 -4.2692041 0
-232.62364 -158.71341 -4.2987008 0
-230.52402 -158.53198 -4.2130904 0
-229.51497 -158.47057 -4.2500205 0
-243.85284 -158.30536 -4.2275376 0
-243.9976 -158.18954 -4.2251716 0
-231.17033 -158.01503 -4.258111 0
-223.91148 -156.66724 -4.2550716 0
-248.98625 -155.86427 -4.2881041 0
-164.85126 -155.49571 -4.2025328 0
-240.75452 -155.37125 -4.2536125 0
-240.72261 -155.27997 -4.2847371 0
-242.1203 -154.9194 -4.2236004 0
-241.98817 -154.97845 -4.2524676 0
-226.53656 -154.4229 -4.2466307 0
-240.60168 -153.92247 -4.241395 0
-245.15617 -153.80731 -4.2027111 0
-244.68962 -153.74936 -4.2660913 0
-245.41606 -153.64192 -4.2709332 0
-244.77594 -153.63077 -4.255599 0
-238.405 -153.32385 -4.2791376 0
-180.24434 -153.31573 -4.248898 0
-243.73642 -153.22279 -4.2410893 0
-243.13 -153.12274 -4.2269454 0
-180.42714 -153.11934 -4.2394443 0
-164.48729 -152.84392 -4.2056894 0
-181.01064 -152.78645 -4.2493501 0
-236.66356 -152.52249 -4.2388458 0
-237.80423 -152.46573 -4.2918072 0
-237.60335 -152.46477 -4.2933698 0
-220.62674 -152.19771 -4.2733855 0
-234.89775 -151.98529 -4.2815113 0
-186.50481 -150.96159 -4.2561531 0
-169.99487 -150.8344 -4.2083268 0
-239.26546 -150.24387 -4.202116 0
-180.18146 -150.24995 -4.2414756 0
-213.90459 -170.94405 -4.1745486 0
-202.91164 -169.22693 -4.1577516 0
-243.6284 -160.58003 -4.1044531 0
-232.42549 -160.25554 -4.1099529 0
-246.06007 -160.12134 -4.154191 0
-232.99524 -160.10852 -4.1229749 0
-227.22992 -160.15282 -4.1523705 0
-243.52908 -160.04784 -4.157258 0
-233.80347 -160.00459 -4.1703801 0
-233.03816 -160.02776 -4.1562057 0
-244.8217 -159.88292 -4.1722064 0
-240.34052 -159.74496 -4.1061969 0
-248.892 -159.69148 -4.1062636 0
-231.5264 -159.33862 -4.1419854 0
-231.83273 -159.29034 -4.1313524 0
-239.75464 -159.11179 -4.1626544 0
-229.66614 -159.14024 -4.1947641 0
-232.88188 -159.09732 -4.1743965 0
-234.14357 -158.99243 -4.137373 0
-249.60594 -158.72086 -4.1916051 0
-249.54114 -158.71526 -4.1893201 0
-236.45673 -158.78806 -4.1881728 0
-231.10406 -158.76959 -4.1805568 0
-235.77623 -158.65938 -4.1840267 0
-230.48906 -158.66766 -4.1783881 0
-245.13452 -158.54472 -4.1743717 0
-248.91504 -158.36031 -4.1763997 0
-248.2793 -158.2189 -4.1973577 0
-222.60757 -156.97592 -4.1163206 0
-249.85835 -156.70233 -4.1869144 0
-249.91913 -156.6656 -4.186698 0
-164.59335 -156.69254 -4.1700268 0
-169.04544 -155.72821 -4.1103058 0
-220.37712 -155.66821 -4.1968565 0
-240.67738 -155.45094 -4.1874485 0
-220.21243 -155.21996 -4.1710777 0
-222.0752 -155.10733 -4.1289511 0
-239.70746 -154.75401 -4.1018634 0
-222.11423 -154.74911 -4.1409988 0
-240.38782 -154.49089 -4.1985941 0
-222.12642 -154.33443 -4.1537538 0
-243.60533 -154.24092 -4.1722693 0
-243.64645 -154.03429 -4.1750269 0
-244.29189 -153.92117 -4.1318159 0
-243.99657 -153.96431 -4.1632557 0
-244.2738 -153.80321 -4.14605 0
-243.59349 -153.85019 -4.1728244 0
-243.96896 -153.77917 -4.1074028 0
-243.55106 -153.61354 -4.1856332 0
-241.72087 -153.60365 -4.1804461 0
-243.76254 -153.27641 -4.1976304 0
-236.94492 -153.29718 -4.1656289 0
-221.88071 -153.23529 -4.1452127 0
-244.59787 -153.14711 -4.1604176 0
-243.39999 -153.17908 -4.1005297 0
-243.10817 -153.13234 -4.1393976 0
-243.03738 -153.16063 -4.1412697 0
-238.38757 -153.19647 -4.1378932 0
-243.62291 -153.09518 -4.1837869 0
-181.43513 -152.77777 -4.1527395 0
-237.01003 -152.64612 -4.1711326 0
-243.15573 -152.56665 -4.142489 0
-217.96475 -152.23964 -4.1684237 0
-234.72884 -152.15576 -4.1894102 0
-174.82089 -151.1794 -4.1994433 0
-182.22919 -151.08649 -4.1362834 0
-152.07452 -150.8506 -4.1599422 0
-176.85088 -150.52454 -4.1106048 0
-205.74254 -177.65855 -4.0876365 0
-184.97549 -175.22318 -4.0852184 0
-205.94232 -171.01628 -4.0062151 0
-233.58109 -160.73557 -4.0035019 0
-248.5289 -160.62878 -4.0001554 0
-248.67117 -160.58438 -4.0071459 0
-231.5565 -160.57271 -4.0321751 0
-236.78197 -160.48503 -4.0598373 0
-228.16287 -160.41798 -4.0387282 0
-249.69969 -160.33469 -4.0555038 0
-248.82013 -160.31421 -4.0147305 0
-241.19728 -160.37799 -4.0974917 0
-233.79205 -160.26279 -4.0152588 0
-249.99702 -160.17125 -4.072093 0
-249.86562 -160.0611 -4.0699887 0
-247.83376 -160.06238 -4.0639124 0
-231.5284 -159.85707 -4.055162 0
-232.55812 -159.73604 -4.0851297 0
-231.35847 -159.65707 -4.0755777 0
-244.06395 -159.5757 -4.0009809 0
-236.89334 -159.58174 -4.0898843 0
-235.61147 -159.40106 -4.0821519 0
-235.04558 -159.46202 -4.0983882 0
-239.87549 -159.03172 -4.0866771 0
-248.69353 -158.86047 -4.060586 0
-238.41389 -157.44157 -4.0962634 0
-223.46339 -157.28249 -4.0128021 0
-222.96239 -156.80745 -4.0593143 0
-221.93828 -156.63853 -4.0451622 0
-152.53894 -156.66499 -4.0317321 0
-239.69939 -154.81812 -4.0262308 0
-241.63351 -154.71365 -4.0888581 0
-239.65601 -154.71669 -4.0391836 0
-241.5732 -154.6998 -4.0911474 0
-244.17627 -153.75485 -4.0228205 0
-244.20927 -153.52599 -4.0705032 0
-245.00679 -153.4612 -4.0972595 0
-223.04912 -153.48546 -4.0250826 0
-242.35893 -152.83881 -4.0816479 0
-238.11208 -152.7023 -4.0655394 0
-237.08333 -152.59462 -4.0283518 0
-237.54611 -152.4566 -4.0540218 0
-236.99834 -152.43544 -4.0669942 0
-237.4673 -152.32397 -4.0670419 0
-234.63913 -152.2863 -4.0535541 0
-234.54474 -152.15468 -4.0619793 0
-236.8414 -151.93805 -4.0845466 0
-178.89799 -151.63559 -4.0910778 0
-179.24065 -151.55284 -4.0767617 0
-215.10725 -151.39345 -4.0531936 0
-181.96739 -151.2704 -4.05586 0
-151.94542 -150.87537 -4.0440474 0
-169.72218 -150.338 -4.0724773 0
-168.79881 -150.12344 -4.0944242 0
-151.64427 -150.15086 -4.0562644 0
-180.53642 -150.09703 -4.0931764 0
-204.18654 -167.8725 -3.9317172 0
-194.85551 -165.48676 -3.9509664 0
-229.88522 -162.27489 -3.9000142 0
-243.21838 -161.7139 -3.9217801 0
-228.73216 -161.48453 -3.9583633 0
-245.70866 -161.37444 -3.9640789 0
-245.5723 -161.27509 -3.9624283 0
-247.51454 -161.04379 -3.9477835 0
-248.05077 -160.93501 -3.9723818 0
-243.22002 -160.9549 -3.9820733 0
-248.28644 -160.8093 -3.9854305 0
-247.84457 -160.81181 -3.9676576 0
-234.5927 -160.75482 -3.903465 0
-248.59146 -160.67035 -3.9541662 0
-238.90388 -160.62041 -3.9009054 0
-247.88026 -160.53217 -3.922878 0
-248.30336 -160.38319 -3.949759 0
-234.41963 -160.39142 -3.9849825 0
-152.64851 -160.28673 -3.9445004 0
-224.4149 -158.31737 -3.9339931 0
-224.71114 -157.623 -3.9040244 0
-238.38629 -157.47418 -3.9355006 0
-222.67957 -157.01633 -3.9417427 0
-239.81781 -154.88821 -3.94752 0
-241.53871 -154.58878 -3.9921079 0
-214.07069 -154.15079 -3.959223 0
-244.08215 -153.73454 -3.9822218 0
-243.73595 -153.66682 -3.9674833 0
-243.02249 -153.40567 -3.9537759 0
-237.69768 -153.47214 -3.9509223 0
-244.01324 -153.33696 -3.9907701 0
-244.75555 -153.20616 -3.9786565 0
-243.61365 -153.06566 -3.9609411 0
-242.778 -152.51089 -3.9555631 0
-237.59674 -152.3606 -3.9280577 0
-172.27547 -152.19516 -3.9069278 0
-234.85352 -151.98209 -3.9020379 0
-171.88831 -151.9395 -3.9720297 0
-178.92468 -151.5621 -3.9535232 0
-244.17238 -151.4281 -3.9344025 0
-181.86217 -151.21985 -3.9837377 0
-169.74495 -151.01152 -3.986748 0
-175.33792 -150.97388 -3.922703 0
-160.00073 -150.8699 -3.9565079 0
-165.99506 -150.67731 -3.9929452 0
-169.66597 -150.46858 -3.9010606 0
-239.64108 -150.05209 -3.9449084 0
-201.05762 -168.78297 -3.8675339 0
-195.3062 -165.35844 -3.8809621 0
-228.13226 -162.82922 -3.8248291 0
-245.13588 -162.47404 -3.8111699 0
-246.21434 -162.10733 -3.865139 0
-246.76654 -161.94725 -3.820847 0
-244.93909 -161.81146 -3.8291173 0
-244.67799 -161.72833 -3.8738933 0
-240.87645 -161.60941 -3.8101406 0
-244.54636 -161.54599 -3.8676901 0
-226.05344 -160.33432 -3.802774 0
-244.02458 -159.59955 -3.8046896 0
-163.30891 -154.75647 -3.867033 0
-154.1181 -154.50351 -3.8756876 0
-240.94249 -154.24048 -3.8793437 0
-185.06613 -153.71187 -3.8918705 0
-244.17096 -153.60265 -3.8480401 0
-241.78899 -153.56787 -3.8404932 0
-244.36674 -153.21722 -3.8086798 0
-243.46332 -153.19354 -3.8921952 0
-244.80408 -152.93307 -3.8997939 0
-244.6512 -152.97659 -3.8230467 0
-244.72874 -152.88956 -3.8278482 0
-242.49797 -152.63622 -3.820518 0
-179.04268 -152.59334 -3.8084815 0
-242.90253 -152.49927 -3.8155208 0
-237.70644 -152.44897 -3.8364995 0
-237.51331 -152.45613 -3.8049819 0
-185.3214 -152.47398 -3.8713133 0
-236.66386 -152.39066 -3.8047335 0
-179.28035 -151.77737 -3.8543003 0
-178.50526 -151.75537 -3.8907056 0
-178.46559 -151.78162 -3.8348479 0
-179.13628 -151.64983 -3.8288479 0
-178.92897 -151.62085 -3.8688762 0
-244.36243 -151.55997 -3.8206081 0
-179.11638 -151.51711 -3.8446503 0
-179.04111 -151.56178 -3.8598371 0
-178.98927 -151.49413 -3.8494563 0
-182.01273 -151.27547 -3.857002 0
-181.84193 -151.29218 -3.8864031 0
-182.22234 -151.17604 -3.8767722 0
-181.96252 -151.1387 -3.8901882 0
-186.83148 -151.05568 -3.8474321 0
-175.31352 -150.88139 -3.8466842 0
-169.60846 -150.83147 -3.8801026 0
-179.31387 -150.69319 -3.880137 0
-180.03386 -150.25893 -3.8233747 0
-166.75346 -150.29065 -3.864212 0
-239.71086 -150.17346 -3.8266959 0
-238.72768 -150.161 -3.8216131 0
-238.65622 -150.0826 -3.8288167 0
-195.16901 -165.35278 -3.7293069 0
-195.07542 -165.33253 -3.7387469 0
-232.77408 -161.62843 -3.7076108 0
-232.7027 -161.58597 -3.7115285 0
-249.98541 -161.48697 -3.7786074 0
-249.43785 -161.18124 -3.7256656 0
-247.60432 -159.42184 -3.7142036 0
-240.60733 -158.95311 -3.7836828 0
-239.89525 -158.28038 -3.7214241 0
-239.60378 -158.04472 -3.7881584 0
-226.00528 -157.73175 -3.7731724 0
-222.92987 -157.0726 -3.7898803 0
-222.39645 -156.95113 -3.7793763 0
-222.3073 -156.55634 -3.7962084 0
-243.39023 -156.37453 -3.772886 0
-240.4344 -155.09477 -3.7719419 0
-179.25513 -154.2339 -3.7144179 0
-243.13728 -154.1028 -3.7528074 0
-240.48322 -153.86685 -3.7205536 0
-242.8219 -153.52904 -3.771678 0
-243.61049 -153.23456 -3.7189531 0
-238.30508 -153.10355 -3.7336326 0
-244.29024 -153.08957 -3.78649 0
-242.59346 -152.91762 -3.7933638 0
-237.38615 -152.93727 -3.7027829 0
-181.28468 -152.97086 -3.7112501 0
-238.38275 -152.85022 -3.7395856 0
-245.02821 -152.71674 -3.7721884 0
-243.55368 -152.72353 -3.7435203 0
-238.12042 -152.50443 -3.7244856 0
-243.80994 -152.42903 -3.7635543 0
-243.60744 -152.49103 -3.7359636 0
-237.77399 -152.42818 -3.7155554 0
-237.56004 -152.4962 -3.710542 0
-243.23524 -151.91592 -3.7396045 0
-179.08598 -151.62198 -3.7778196 0
-178.94662 -151.63557 -3.713964 0
-179.17181 -151.52086 -3.7438791 0
-178.9328 -151.56215 -3.7899795 0
-243.08919 -151.39699 -3.7599394 0
-169.63214 -151.15849 -3.7583303 0
-151.95396 -150.8907 -3.765753 0
-169.53238 -150.47218 -3.7850945 0
-169.00601 -150.30806 -3.7299519 0
-168.95532 -150.21242 -3.7036049 0
-169.01524 -150.17334 -3.7764521 0
-181.82477 -150.07013 -3.7269883 0
-186.89957 -177.57774 -3.6772614 0
-187.20958 -177.25229 -3.6762986 0
-244.47964 -162.89824 -3.6449883 0
-244.24884 -162.58786 -3.6652024 0
-249.63374 -162.40492 -3.6264572 0
-244.00885 -162.32262 -3.6836672 0
-226.26428 -160.26883 -3.6975386 0
-151.48625 -160.21432 -3.6785345 0
-225.61044 -159.29901 -3.6229839 0
-152.112 -156.508 -3.6440506 0
-162.1208 -155.53195 -3.6023698 0
-240.27385 -154.56711 -3.6883173 0
-240.68275 -154.22917 -3.6989949 0
-244.73471 -153.7399 -3.6366467 0
-238.36595 -153.64844 -3.6762371 0
-243.7305 -153.40468 -3.6974635 0
-244.43628 -153.38602 -3.6669159 0
-238.27715 -153.34575 -3.6479058 0
-243.26318 -153.08774 -3.6375999 0
-237.65712 -153.08362 -3.6650324 0
-181.36298 -152.97374 -3.6915011 0
-243.213 -152.89207 -3.6543801 0
-243.05209 -152.69641 -3.6679502 0
-178.94684 -152.60678 -3.6482873 0
-244.77432 -152.42842 -3.6090701 0
-243.30627 -151.75034 -3.6115794 0
-169.56657 -151.34453 -3.6362855 0
-182.22197 -151.11566 -3.6264882 0
-182.08379 -151.19244 -3.6294119 0
-151.93002 -150.87695 -3.627439 0
-152.21037 -150.76738 -3.6482265 0
-170.22852 -150.5656 -3.6704338 0
-150.86189 -150.42972 -3.6789384 0
-168.54964 -150.26967 -3.6753635 0
-151.66083 -150.04745 -3.625385 0
-211.6629 -173.85561 -3.5463011 0
-226.60965 -166.58325 -3.5007076 0
-244.60556 -164.23763 -3.5335968 0
-244.79648 -163.99265 -3.5471487 0
-248.64207 -163.71295 -3.5362985 0
-247.61452 -163.60817 -3.5275381 0
-248.72466 -163.52443 -3.5475602 0
-247.70401 -163.57649 -3.5264966 0
-236.40746 -163.58585 -3.5029533 0
-244.44429 -162.54288 -3.5522673 0
-244.01576 -162.36494 -3.5360758 0
-247.79991 -161.24799 -3.5241778 0
-235.78961 -158.49068 -3.5573592 0
-238.99054 -157.54118 -3.5232339 0
-222.98749 -157.26085 -3.5041819 0
-166.90413 -157.12828 -3.5289142 0
-162.8568 -156.16945 -3.5671539 0
-243.61899 -155.13492 -3.5651968 0
-237.08104 -153.50266 -3.5591249 0
-244.39314 -153.49167 -3.5324001 0
-241.95728 -153.29646 -3.5553076 0
-182.81595 -153.18843 -3.5543182 0
-159.60429 -153.1804 -3.5626433 0
-243.62308 -152.9512 -3.5566211 0
-243.71245 -152.8076 -3.5568588 0
-237.13785 -152.60553 -3.5941989 0
-244.6456 -152.56107 -3.5665953 0
-243.39503 -152.55931 -3.5264478 0
-244.39789 -152.45064 -3.5217907 0
-243.44127 -152.49217 -3.5539856 0
-243.27654 -152.41069 -3.541034 0
-244.51802 -152.26393 -3.5303903 0
-244.08432 -152.20766 -3.5624309 0
-242.67168 -152.28391 -3.5997677 0
-244.38922 -152.06424 -3.5729876 0
-243.12393 -151.96767 -3.5293126 0
-177.64174 -151.86214 -3.5948155 0
-179.09726 -151.49736 -3.5112035 0
-153.25742 -150.96777 -3.5435212 0
-151.63129 -150.11719 -3.5973592 0
-181.83112 -150.0403 -3.595654 0
-191.09978 -164.89624 -3.4193232 0
-244.31013 -164.36615 -3.4749761 0
-246.9854 -164.25502 -3.4394436 0
-246.73383 -164.2688 -3.4444323 0
-235.85449 -163.90456 -3.4648659 0
-249.20882 -163.81383 -3.4096463 0
-234.66968 -163.8484 -3.4182162 0
-195.55879 -163.89047 -3.4235854 0
-249.49326 -163.43205 -3.4262235 0
-249.68111 -162.35471 -3.4648852 0
-223.45984 -160.99699 -3.4736087 0
-226.12669 -160.30373 -3.4228227 0
-238.74245 -158.96576 -3.4141912 0
-239.3936 -157.40138 -3.4284508 0
-222.44402 -157.17184 -3.4146209 0
-219.96803 -155.8141 -3.4247749 0
-242.33037 -153.92096 -3.4999013 0
-242.64522 -153.42392 -3.4715858 0
-241.68968 -153.38664 -3.4229097 0
-238.64035 -153.23402 -3.4498839 0
-242.99603 -153.15715 -3.4562595 0
-242.59781 -153.1366 -3.4545052 0
-181.26163 -153.11343 -3.4216576 0
-243.70244 -153.00775 -3.4817958 0
-243.53357 -153.08565 -3.4779906 0
-183.94507 -153.07153 -3.4495649 0
-238.65405 -152.91089 -3.4283304 0
-244.65364 -152.85353 -3.4263158 0
-176.93407 -152.70062 -3.446985 0
-244.47667 -152.63411 -3.443269 0
-238.57439 -152.60892 -3.4434326 0
-236.20172 -152.55646 -3.430047 0
-235.89302 -152.59956 -3.4472699 0
-237.00484 -152.49413 -3.4132168 0
-243.41779 -152.28694 -3.407382 0
-242.94873 -151.94527 -3.4196076 0
-178.92946 -151.6068 -3.4119461 0
-150.9482 -151.39375 -3.4171827 0
-181.97664 -151.23935 -3.4167297 0
-182.12393 -151.14755 -3.4153221 0
-182.22409 -151.0789 -3.4302573 0
-151.94792 -150.94867 -3.4097304 0
-200.90834 -168.72316 -3.3903744 0
-247.60167 -165.54451 -3.3227124 0
-247.43736 -164.95107 -3.3594439 0
-244.81421 -164.92094 -3.3739085 0
-248.92662 -164.73134 -3.3745682 0
-234.98149 -164.26625 -3.3497963 0
-249.12202 -164.19231 -3.3183727 0
-234.75423 -164.13722 -3.3424118 0
-249.98987 -160.85687 -3.3492565 0
-249.73624 -159.89403 -3.3864789 0
-234.21776 -159.30893 -3.3967619 0
-238.36241 -157.30348 -3.3314979 0
-223.35785 -157.24359 -3.3758349 0
-221.71616 -156.72725 -3.3724554 0
-220.45427 -155.78511 -3.3710392 0
-220.12622 -155.6575 -3.3822608 0
-154.14583 -155.18953 -3.3590779 0
-244.97046 -154.8278 -3.3676629 0
-239.62709 -154.81413 -3.389616 0
-244.67815 -154.606 -3.3540044 0
-153.7182 -154.2312 -3.3422015 0
-236.91078 -153.93111 -3.3948066 0
-241.70052 -153.59431 -3.3423073 0
-242.50227 -153.39539 -3.3351192 0
-181.15584 -153.3334 -3.3923519 0
-242.44795 -153.18091 -3.3351536 0
-241.6653 -153.11592 -3.3567264 0
-244.13306 -153.03003 -3.3893468 0
-181.56627 -153.01201 -3.3525591 0
-181.11739 -153.06784 -3.3423347 0
-179.89549 -153.01004 -3.3812029 0
-242.29605 -152.98732 -3.3292799 0
-244.31125 -152.70215 -3.3233724 0
-164.2971 -152.65285 -3.394062 0
-244.18333 -152.2915 -3.3387396 0
-177.77673 -152.12865 -3.3375497 0
-237.49403 -151.80746 -3.3109174 0
-178.27971 -151.77249 -3.3603389 0
-150.99982 -151.38603 -3.3830047 0
-181.99487 -151.27298 -3.3374937 0
-182.15839 -151.12581 -3.3512392 0
-181.96602 -151.13464 -3.3218131 0
-182.90849 -150.92345 -3.3541498 0
-181.71275 -150.20702 -3.3794606 0
-181.62221 -150.11171 -3.3856146 0
-168.35083 -150.1218 -3.377362 0
-181.75211 -150.06938 -3.3997231 0
-168.55356 -150.05472 -3.377634 0
-248.23662 -165.72966 -3.2841303 0
-248.32365 -165.65181 -3.2839031 0
-242.83047 -165.51419 -3.2859809 0
-233.88814 -165.47021 -3.2192087 0
-235.83879 -164.47307 -3.2795689 0
-244.30511 -162.52505 -3.2804821 0
-233.06053 -162.24109 -3.2659652 0
-164.27461 -156.11989 -3.2881217 0
-162.03288 -155.39145 -3.2679472 0
-245.47234 -154.74419 -3.2151785 0
-221.3782 -154.4384 -3.2751606 0
-184.5363 -154.4257 -3.2157247 0
-177.21786 -153.63196 -3.2339203 0
-238.49251 -153.5368 -3.2232335 0
-242.31345 -153.28271 -3.2971995 0
-236.74004 -153.22972 -3.2394958 0
-177.52876 -153.22835 -3.2224507 0
-238.54672 -153.16006 -3.2728481 0
-243.71571 -153.02766 -3.2725954 0
-239.12263 -153.08583 -3.2205009 0
-181.2097 -153.06889 -3.2079625 0
-243.62263 -152.94652 -3.2267361 0
-243.58388 -152.95667 -3.2166245 0
-236.27327 -152.84502 -3.2126827 0
-159.29355 -152.78981 -3.2638891 0
-159.129 -152.76891 -3.2798631 0
-238.45795 -152.65869 -3.2694807 0
-236.52591 -152.63939 -3.2094743 0
-238.11433 -152.59007 -3.2366898 0
-236.57286 -152.50143 -3.2143395 0
-179.61494 -152.57588 -3.2184405 0
-237.36674 -152.40721 -3.2622859 0
-237.04822 -152.32626 -3.2576141 0
-236.98343 -152.33069 -3.2796004 0
-244.0919 -152.25047 -3.2455411 0
-179.47861 -151.71712 -3.2610836 0
-178.92484 -151.65984 -3.2173228 0
-178.91785 -151.51376 -3.2429388 0
-178.71806 -151.59525 -3.2319493 0
-181.96103 -151.27357 -3.2165296 0
-182.27219 -151.1004 -3.2092254 0
-182.07289 -151.10838 -3.2671411 0
-181.61386 -150.13878 -3.2070415 0
-168.63463 -150.05157 -3.2418647 0
-226.89864 -168.39227 -3.11357 0
-228.37637 -167.35106 -3.1959066 0
-204.33183 -166.87013 -3.1512322 0
-203.99399 -166.70407 -3.1674163 0
-203.9626 -166.65234 -3.1605849 0
-243.72572 -166.5582 -3.117398 0
-233.76398 -165.98714 -3.1442435 0
-245.53365 -165.87994 -3.1142514 0
-233.61583 -165.59871 -3.1980276 0
-236.8199 -165.05791 -3.1809087 0
-249.20575 -163.76994 -3.1792111 0
-249.32158 -163.69931 -3.1114068 0
-223.25804 -160.96381 -3.1369629 0
-220.9086 -156.86845 -3.1791348 0
-152.18381 -156.48755 -3.1521838 0
-170.50735 -154.92279 -3.1228817 0
-245.23401 -154.34058 -3.1612101 0
-244.9183 -154.18985 -3.180779 0
-236.73259 -153.91891 -3.1984968 0
-244.49062 -153.64589 -3.1381547 0
-180.95192 -153.69321 -3.1273897 0
-181.21693 -153.1091 -3.1682067 0
-180.42574 -153.08408 -3.1540034 0
-243.71999 -152.99591 -3.19103 0
-238.61511 -152.81914 -3.1448703 0
-154.5256 -152.7406 -3.1520517 0
-236.48006 -152.41441 -3.1505499 0
-183.26898 -152.46944 -3.1212928 0
-236.91406 -152.35028 -3.1687777 0
-239.41168 -152.24925 -3.1482439 0
-237.89273 -152.05954 -3.1525781 0
-244.36646 -151.96202 -3.1670094 0
-178.16028 -151.85732 -3.1181455 0
-244.06235 -151.73482 -3.1325774 0
-243.98267 -151.73276 -3.1295803 0
-238.69113 -151.75801 -3.142364 0
-178.92249 -151.64821 -3.1013217 0
-178.84021 -151.6449 -3.1361566 0
-178.69432 -151.61896 -3.1414666 0
-243.93871 -151.54985 -3.1133699 0
-178.85855 -151.58548 -3.110899 0
-178.74011 -151.58833 -3.1412604 0
-244.11272 -151.35683 -3.1517043 0
-182.15822 -151.07753 -3.1488976 0
-182.19865 -150.95763 -3.1228366 0
-151.65582 -150.85904 -3.1534026 0
-169.06801 -150.3101 -3.1105864 0
-168.75792 -150.33684 -3.1958017 0
-181.70973 -150.09714 -3.1988409 0
-230.66223 -167.77454 -3.024452 0
-242.51286 -167.42348 -3.0179384 0
-243.72823 -166.84804 -3.0435863 0
-242.12508 -166.59604 -3.021452 0
-241.68651 -166.56364 -3.081862 0
-236.06758 -165.76321 -3.0926049 0
-241.98965 -163.29976 -3.0641227 0
-233.21413 -162.22928 -3.0555966 0
-235.78513 -158.43771 -3.0497832 0
-236.46185 -158.04462 -3.0566053 0
-162.8432 -156.34793 -3.0509973 0
-220.54784 -155.88161 -3.0067408 0
-220.57655 -155.61206 -3.0252442 0
-182.32478 -154.61282 -3.0675979 0
-243.81194 -154.4471 -3.0637536 0
-162.99721 -154.49768 -3.00981 0
-180.56354 -154.1913 -3.090307 0
-243.56543 -153.99525 -3.0729146 0
-245.95409 -153.81239 -3.0839496 0
-244.77119 -153.73457 -3.0362248 0
-243.61458 -153.71809 -3.0830092 0
-244.73056 -153.51407 -3.0775738 0
-244.58186 -153.48523 -3.0731263 0
-181.23749 -153.41487 -3.0838265 0
-244.41573 -153.36609 -3.0721116 0
-237.82214 -153.35468 -3.0601463 0
-179.28017 -153.32632 -3.0513105 0
-244.64029 -153.21088 -3.0554185 0
-244.18028 -153.23019 -3.0691729 0
-179.34589 -153.25044 -3.0600348 0
-180.38261 -153.00864 -3.0314422 0
-242.6982 -152.71951 -3.0843275 0
-238.73947 -152.73137 -3.0762641 0
-242.78876 -152.65985 -3.0453546 0
-238.47981 -152.62567 -3.0939283 0
-179.47739 -152.32404 -3.0270305 0
-241.94386 -152.04247 -3.033838 0
-241.78909 -152.00822 -3.008003 0
-179.0009 -151.63481 -3.0227103 0
-243.89999 -151.43159 -3.0970004 0
-182.02637 -151.2364 -3.0853162 0
-151.98041 -150.95403 -3.055979 0
-244.19299 -150.77657 -3.0420389 0
-237.99652 -150.42387 -3.0841696 0
-168.82445 -150.32013 -3.0432851 0
-169.23845 -150.25648 -3.0474777 0
-168.89278 -150.29817 -3.0075586 0
-168.69395 -150.19499 -3.0914292 0
-169.17303 -150.02988 -3.0470395 0
-187.06104 -174.81812 -2.9128761 0
-228.48024 -168.60751 -2.9385521 0
-229.51007 -168.10616 -2.93782 0
-228.8598 -168.09175 -2.9597921 0
-202.1671 -166.27214 -2.9549723 0
-222.76352 -157.09528 -2.9171686 0
-178.9407 -154.56767 -2.9259837 0
-161.53264 -154.59735 -2.9049077 0
-178.53761 -154.36237 -2.9708126 0
-181.1535 -153.99483 -2.9497249 0
-168.78764 -153.83794 -2.9653594 0
-246.06924 -153.74976 -2.9048891 0
-244.88319 -153.51775 -2.981709 0
-244.44579 -153.37932 -2.9728293 0
-180.36066 -153.39249 -2.9999619 0
-181.23409 -153.23911 -2.9513855 0
-181.17325 -153.2762 -2.9478056 0
-180.39192 -152.99136 -2.9980967 0
-242.84631 -152.57123 -2.9502501 0
-177.69356 -152.48705 -2.9456758 0
-177.16367 -152.46463 -2.9827383 0
-177.58763 -152.30376 -2.9446151 0
-236.36852 -152.08449 -2.9407928 0
-236.16612 -151.9252 -2.9451303 0
-239.15149 -151.86984 -2.9321449 0
