# .PCD v0.7 - Point Cloud Data file format
VERSION 0.7
FIELDS x y z intensity
SIZE 4 4 4 4
TYPE F F F F
COUNT 1 1 1 1
WIDTH 327
HEIGHT 1
VIEWPOINT 0 0 0 1 0 0 0
POINTS 327
DATA ascii
-181.98605 50.262234 -4.4127622 0
-181.53583 50.262775 -4.4529605 0
-181.30927 50.515949 -4.4444671 0
-181.10889 50.803219 -4.4365134 0
-179.88261 50.896484 -4.4354677 0
-180.23238 51.814842 -4.4030352 0
-171.02837 52.444302 -4.4546142 0
-155.92413 50.16032 -4.3686457 0
-181.26118 50.876667 -4.3903289 0
-181.11533 51.042591 -4.3861952 0
-161.61258 51.021481 -4.3428969 0
-180.9738 51.218826 -4.382122 0
-180.86023 51.276569 -4.3760109 0
-155.74164 51.446972 -4.3436484 0
-179.10545 52.07283 -4.3877153 0
-179.84904 52.277256 -4.3328671 0
-224.65445 52.439106 -4.3592086 0
-179.75554 52.422718 -4.3434072 0
-178.44112 52.772106 -4.3953419 0
-186.31798 52.826187 -4.3225255 0
-179.25154 52.990166 -4.3655233 0
-186.28381 53.790653 -4.3099947 0
-177.89175 55.347256 -4.3056598 0
-163.64081 55.582287 -4.3089676 0
-178.02028 55.632816 -4.3110938 0
-187.39467 50.714977 -4.261405 0
-224.81375 51.6721 -4.2324228 0
-224.67406 52.018364 -4.2006555 0
-171.13451 54.159603 -4.253418 0
-171.93388 54.49189 -4.2233386 0
-169.89748 55.19257 -4.2025514 0
-182.13484 56.004841 -4.2491117 0
-177.71204 56.531551 -4.2956581 0
-177.58784 56.630886 -4.2827086 0
-176.2692 56.813999 -4.2886047 0
-176.49876 57.053913 -4.2271757 0
-177.01251 57.198368 -4.2488446 0
-176.30743 57.800339 -4.2078161 0
-224.90227 50.54723 -4.1121449 0
-224.77446 50.541225 -4.1185265 0
-224.67366 50.639645 -4.11589 0
-224.9046 50.752316 -4.1061416 0
-224.81427 50.869282 -4.1728296 0
-224.78198 51.061062 -4.105341 0
-224.68074 51.04818 -4.181314 0
-224.76265 52.164478 -4.1466684 0
-224.63724 52.1077 -4.1310716 0
-224.61652 52.65757 -4.1050963 0
-224.70517 52.928432 -4.1077132 0
-222.69926 53.6418 -4.1144476 0
-187.49397 56.214458 -4.1368194 0
-154.64435 59.38868 -4.1939864 0
-164.97731 60.820679 -4.1047416 0
-165.88167 61.662914 -4.121901 0
-224.64949 51.69434 -4.0796504 0
-224.69963 52.647625 -4.0457072 0
-224.59859 53.237694 -4.0778942 0
-222.53412 53.570484 -4.0474901 0
-223.57663 53.658981 -4.0748439 0
-221.96248 53.61895 -4.0443468 0
-223.98575 53.718861 -4.0247483 0
-189.13547 55.824463 -4.0498061 0
-188.10289 61.079334 -4.0938578 0
-188.05426 61.659649 -4.0791936 0
-188.10594 62.219521 -4.0699129 0
-224.74304 50.310986 -3.9348912 0
-224.70067 50.663349 -3.9889846 0
-224.7205 50.855511 -3.9868226 0
-224.70184 51.029476 -3.9785781 0
-224.64111 51.29945 -3.9976931 0
-224.70894 51.612782 -3.9105906 0
-224.5614 53.190952 -3.9174082 0
-220.37379 53.543884 -3.9692702 0
-224.01323 53.679264 -3.9975896 0
-223.81912 53.671444 -3.9339616 0
-222.90829 53.634327 -3.9342139 0
-188.50485 60.61343 -3.9119112 0
-164.9257 60.824627 -3.9951236 0
-164.66547 60.878094 -3.9004531 0
-188.27733 61.240517 -3.9348891 0
-224.67093 51.105721 -3.8289759 0
-224.65332 51.280464 -3.8261168 0
-224.69505 51.433533 -3.8624253 0
-224.65341 52.842743 -3.8531337 0
-221.74937 53.590424 -3.8315434 0
-220.72346 53.563911 -3.8140028 0
-224.53882 53.668091 -3.8107719 0
-222.74004 53.640564 -3.8806508 0
-189.73183 54.682297 -3.8311684 0
-189.63591 54.777527 -3.8214221 0
-165.10565 60.873245 -3.8278496 0
-188.14479 63.260509 -3.8885586 0
-224.7141 50.071281 -3.7008135 0
-224.68285 50.278931 -3.7897022 0
-224.77884 50.508247 -3.7822888 0
-224.63745 50.906216 -3.7288229 0
-191.20117 52.157093 -3.7364888 0
-224.60724 52.415741 -3.7722957 0
-224.58759 53.145004 -3.749244 0
-220.47986 53.54488 -3.7687867 0
-224.21078 53.690926 -3.71384 0
-224.11185 53.619049 -3.7105572 0
-223.8653 53.625446 -3.7952428 0
-190.94595 53.816528 -3.7012236 0
-189.74138 54.694946 -3.7912478 0
-189.74178 58.564308 -3.7269101 0
-222.97057 50.558979 -3.6699808 0
-222.70515 53.442444 -3.6694474 0
-221.33839 53.546303 -3.6182804 0
-223.10623 53.730072 -3.6728134 0
-161.2486 55.837555 -3.6660376 0
-190.45323 57.190739 -3.6355789 0
-190.21457 57.96904 -3.6149631 0
-189.97118 58.521751 -3.6975017 0
-189.40428 59.78709 -3.6776731 0
-189.16486 59.76083 -3.6700327 0
-188.91574 59.724506 -3.6569202 0
-188.74535 59.893372 -3.6106975 0
-189.43771 60.116562 -3.6328619 0
-188.10864 62.778534 -3.6771841 0
-187.96371 64.249809 -3.6529195 0
-187.87814 64.680618 -3.6453598 0
-187.94586 66.404732 -3.6194856 0
-188.10985 67.762924 -3.6002884 0
-222.85529 50.344818 -3.5744145 0
-222.8308 51.062176 -3.5456219 0
-222.79062 51.782673 -3.521271 0
-191.83189 51.849907 -3.5397899 0
-191.60706 51.996868 -3.558898 0
-191.58157 52.643421 -3.5972636 0
-191.55653 53.518002 -3.5520682 0
-191.15598 53.924477 -3.5564075 0
-191.06651 54.227871 -3.5468035 0
-161.18008 55.917881 -3.572762 0
-190.08978 58.433739 -3.5964503 0
-189.04997 59.93824 -3.5617018 0
-188.30167 61.785667 -3.5735898 0
-188.40169 62.470119 -3.5057788 0
-188.73367 62.612774 -3.5370104 0
-222.2009 53.556335 -3.4654789 0
-221.93109 53.538841 -3.4783931 0
-221.19598 53.521984 -3.4997535 0
-191.35582 53.70351 -3.4855103 0
-191.1476 54.016632 -3.4700124 0
-191.19844 54.327938 -3.4383993 0
-191.16078 54.716431 -3.4247794 0
-190.7876 54.84425 -3.4100039 0
-163.12712 55.642818 -3.4452157 0
-161.32365 55.95393 -3.4817359 0
-191.24489 57.573811 -3.4611685 0
-191.68153 59.014252 -3.4303355 0
-191.04199 59.342182 -3.4088783 0
-189.90506 60.032501 -3.4602876 0
-189.53282 60.209442 -3.4181712 0
-188.0675 62.974594 -3.4874442 0
-188.03687 63.172592 -3.4929099 0
-188.08105 64.763557 -3.452585 0
-191.86768 52.893948 -3.3171067 0
-191.68059 53.031174 -3.3099833 0
-191.46396 57.291573 -3.3798265 0
-191.91196 59.951092 -3.3102949 0
-190.48941 60.14732 -3.3770125 0
-188.98409 60.552448 -3.343158 0
-192.0016 51.760258 -3.208292 0
-191.49312 53.19199 -3.2680011 0
-191.65681 53.645687 -3.2918732 0
-191.4118 53.803852 -3.2792311 0
-191.37471 54.071487 -3.2932186 0
-165.33252 55.979839 -3.2130249 0
-190.56009 60.352959 -3.2574863 0
-188.60411 64.33168 -3.218101 0
-190.30209 74.744751 -3.2771873 0
-163.11569 55.642021 -3.185159 0
-163.24168 55.710499 -3.1341777 0
-191.7645 57.366158 -3.1701598 0
-192.18851 57.442459 -3.1765206 0
-177.13101 61.728951 -3.1844454 0
-192.56599 53.432705 -3.0192034 0
-165.81772 56.033211 -3.0142431 0
-165.46921 56.057972 -3.0102813 0
-191.71942 57.360447 -3.0910101 0
-191.6837 57.54007 -3.0799737 0
-191.62791 57.6847 -3.0737538 0
-177.29413 61.643284 -3.0194619 0
-192.4491 50.540291 -2.9579918 0
-192.36984 50.61607 -2.9526801 0
-192.35727 51.351471 -2.970608 0
-192.75336 52.295109 -2.9426839 0
-163.05846 55.637539 -2.9844766 0
-163.01982 55.731354 -2.9070168 0
-162.96817 55.707268 -2.9139118 0
-165.29648 55.954197 -2.998174 0
-190.69308 59.627991 -2.949264 0
-192.08426 61.955223 -2.9595644 0
-192.65558 50.941757 -2.8526001 0
-163.48738 55.661201 -2.8496199 0
-165.78728 55.975441 -2.8307633 0
-165.43875 55.974655 -2.8545575 0
-165.37663 55.996971 -2.8511651 0
-165.71649 56.00362 -2.8509014 0
-190.85088 59.602097 -2.8924799 0
-190.68932 59.668068 -2.8684502 0
-192.19681 62.42477 -2.8855369 0
-192.06876 67.052925 -2.8577883 0
-192.56232 52.915535 -2.7372603 0
-165.34004 55.902283 -2.7998509 0
-192.12259 71.405243 -2.7790551 0
-191.89888 71.694153 -2.702517 0
-192.46185 57.070408 -2.6465559 0
-164.97455 55.982422 -2.5101044 0
-165.6156 56.085594 -2.5483251 0
-165.27568 56.032108 -2.5940909 0
-192.37825 61.881516 -2.529614 0
-192.19395 66.662804 -2.52002 0
-192.70395 52.363243 -2.4510543 0
-163.0771 55.775608 -2.496026 0
-163.22173 55.832882 -2.4526958 0
-162.97723 55.80629 -2.4929421 0
-165.48166 56.062626 -2.4567099 0
-165.3817 56.068661 -2.4556341 0
-165.27663 56.064743 -2.4546585 0
-192.39821 57.448383 -2.4564159 0
-192.39279 57.660446 -2.4439087 0
-190.68124 59.726097 -2.4574437 0
-191.83208 71.51091 -2.4576733 0
-165.8428 56.333767 -2.3709073 0
-165.37065 56.335667 -2.365561 0
-192.27719 62.402905 -2.380178 0
-192.0024 75.522385 -2.3743534 0
-187.14537 50.069901 -2.2573917 0
-190.453 50.150314 -2.29492 0
-187.55527 50.290192 -2.2715712 0
-190.06012 50.68758 -2.2108321 0
-192.23026 61.903381 -2.1684902 0
-192.08258 66.851181 -2.1572957 0
-191.2791 50.164677 -1.9218167 0
-192.80424 51.677551 -1.9780289 0
-192.04465 70.908554 -1.9933295 0
-176.88257 61.8172 -1.4206073 0
-213.16464 50.905975 -0.97622287 0
-198.34274 52.672817 -0.93706274 0
-222.83562 51.399254 -0.57910883 0
-192.55496 51.890297 0.03798316 0
-188.84155 50.481274 0.1557527 0
-222.92247 50.617657 0.48019102 0
-222.8643 50.133457 0.50689292 0
-222.77829 51.587856 0.52268922 0
-192.78212 51.723579 0.58365494 0
-192.61066 52.299484 0.66611868 0
-192.72499 51.876629 0.72210735 0
-192.63713 52.026794 0.75531989 0
-222.6432 53.499065 0.78233904 0
-222.76784 53.37867 0.96504295 0
-192.66386 57.700928 0.99751759 0
-192.59592 52.32288 1.5296813 0
-192.84746 51.727402 1.6620096 0
-192.49501 56.937782 1.6545411 0
-192.86055 51.698486 1.7342802 0
-192.81721 51.728168 1.7012434 0
-192.71158 51.973347 1.77483 0
-192.89485 51.772221 1.8278657 0
-192.63274 56.665455 1.8904213 0
-192.59808 57.11652 1.826252 0
-192.33214 57.770573 1.9255834 0
-192.40437 61.262966 1.9383931 0
-192.42403 61.838581 1.9830395 0
-192.77905 52.44315 2.0200417 0
-192.10492 66.849907 2.0023286 0
-192.47224 62.099995 2.1674962 0
-192.58879 52.143166 2.3708673 0
-192.6846 56.492485 2.3678658 0
-192.18001 62.653904 2.3225496 0
-192.55386 52.501942 2.4211385 0
-192.72569 56.472256 2.4420712 0
-192.63547 56.508991 2.4269319 0
-192.77222 51.786659 2.5722814 0
-192.14178 62.536537 2.5483098 0
-222.83818 50.174191 2.6380143 0
-214.53505 53.977898 2.6907866 0
-192.14827 66.102356 2.6679451 0
-208.68382 50.309177 2.7153897 0
-200.24965 51.853767 2.7852745 0
-192.71298 53.098465 2.7653141 0
-192.37158 56.56535 2.8656628 0
-192.89145 51.792667 2.9455755 0
-192.67836 52.997082 2.9554296 0
-192.52734 61.830521 2.9269137 0
-192.20969 62.650238 2.9305949 0
-192.85118 51.789299 3.0228839 0
-192.73528 52.033066 3.0520883 0
-192.72374 52.187237 3.0743783 0
-192.58081 56.571415 3.0556979 0
-191.96428 70.932007 3.1525667 0
-192.86603 51.813839 3.2769625 0
-192.50854 52.225811 3.3528078 0
-192.83704 52.614899 3.3978565 0
-192.66267 56.513165 3.3919845 0
-192.7135 50.833107 3.481813 0
-192.5873 57.132835 3.4508085 0
-192.60193 57.598179 3.4964576 0
-192.69466 50.790222 3.5128074 0
-192.66914 51.295418 3.5913868 0
-192.60196 58.538124 3.5730422 0
-192.53397 58.548187 3.5064173 0
-223.0477 50.614647 3.6573169 0
-192.91508 51.398369 3.6389115 0
-192.70418 51.541859 3.6265314 0
-192.65358 51.740845 3.6146138 0
-192.57547 53.096107 3.6910284 0
-192.79836 54.331356 3.6498063 0
-192.46356 59.539925 3.6686902 0
-192.50687 59.632996 3.6750429 0
-191.80226 70.931328 3.6596935 0
-192.68166 52.400135 3.7168124 0
-192.73029 52.713276 3.7206869 0
-192.42795 60.23304 3.7905269 0
-192.50874 60.833565 3.7681062 0
-192.75575 52.211407 3.8781292 0
-192.63977 53.581661 3.8748832 0
-192.52715 54.147179 3.8634768 0
-192.65843 57.709949 4.0511885 0
-192.6653 57.93391 4.0747533 0
-192.32271 56.829967 4.135499 0
-192.62718 59.243675 4.1197715 0
-192.89395 50.778049 4.2904058 0
-192.49471 55.876648 4.2444739 0
-192.3645 62.78228 4.2293015 0
