# .PCD v0.7 - Point Cloud Data file format
VERSION 0.7
FIELDS x y z intensity
SIZE 4 4 4 4
TYPE F F F F
COUNT 1 1 1 1
WIDTH 1419
HEIGHT 1
VIEWPOINT 0 0 0 1 0 0 0
POINTS 1419
DATA ascii
-284.02084 -152.45515 0.74661005 0
-264.00821 -152.43727 0.7960254 0
-263.00333 -152.4068 0.70459074 0
-262.70401 -152.06326 0.74009663 0
-266.69873 -151.99013 0.75109941 0
-266.5986 -151.99852 0.79227811 0
-304.6098 -151.09589 0.74521554 0
-267.37057 -151.08542 0.79652011 0
-262.12134 -151.03781 0.762887 0
-262.48135 -150.7211 0.73338294 0
-262.29535 -150.7149 0.74045831 0
-264.10394 -150.68813 0.78083491 0
-264.46924 -150.52356 0.74475324 0
-263.06219 -150.54097 0.7094152 0
-254.1868 -161.49275 0.87525225 0
-276.89725 -159.3877 0.88116306 0
-252.92447 -159.30988 0.88339055 0
-267.37296 -159.12079 0.89683002 0
-252.0947 -159.19374 0.82391703 0
-268.21219 -158.80536 0.80373251 0
-268.1503 -158.75833 0.80996311 0
-274.10699 -157.14732 0.89834613 0
-274.04605 -157.19679 0.89467144 0
-278.14709 -153.17973 0.86030507 0
-283.93057 -152.37271 0.8660965 0
-263.29929 -152.33243 0.86908287 0
-262.38144 -151.92694 0.83364284 0
-267.11264 -151.5224 0.80116504 0
-284.87891 -151.39836 0.88363105 0
-263.41876 -151.27243 0.89636964 0
-263.56854 -151.19269 0.88642627 0
-284.47473 -151.06854 0.83986437 0
-264.25482 -151.06032 0.86389434 0
-277.71182 -150.81659 0.81924802 0
-262.3985 -150.79578 0.8226226 0
-262.18839 -150.7825 0.86681044 0
-283.47852 -150.43852 0.88383764 0
-280.44534 -150.31686 0.8324632 0
-263.25885 -150.38995 0.88714921 0
-255.27405 -159.60229 0.90705651 0
-254.36049 -159.59296 0.93316156 0
-265.17795 -159.25563 0.90664685 0
-272.77048 -158.9389 0.98884827 0
-268.74121 -157.39931 0.97504026 0
-272.62344 -156.29984 0.90662259 0
-269.43765 -153.95531 0.94615597 0
-275.13635 -152.18542 0.92961621 0
-263.26303 -152.18694 0.98718542 0
-266.71463 -151.93037 0.92862743 0
-270.97757 -151.10139 0.93949658 0
-262.24619 -151.07864 0.98262596 0
-262.43338 -150.55403 0.91863543 0
-280.34872 -150.29326 0.9067449 0
-260.15448 -164.6602 1.0896909 0
-254.08858 -161.58562 1.0744163 0
-271.9559 -159.68442 1.0706743 0
-273.69373 -158.2742 1.0786984 0
-274.51321 -157.42299 1.097072 0
-274.52151 -157.16638 1.0520699 0
-274.67462 -156.96591 1.015981 0
-259.55652 -155.18936 1.0716718 0
-274.77448 -152.66048 1.0219586 0
-284.056 -152.40627 1.0557854 0
-266.67664 -151.90936 1.0491974 0
-264.36288 -151.72308 1.035645 0
-262.9649 -151.50604 1.0475895 0
-264.35065 -151.45676 1.0929759 0
-264.04562 -151.34627 1.0331722 0
-263.25571 -151.34647 1.0524168 0
-264.40039 -151.16516 1.0409365 0
-264.05054 -151.10178 1.0516726 0
-263.98459 -151.0782 1.0661809 0
-263.26044 -151.02274 1.0262591 0
-263.50333 -150.8163 1.0021789 0
-255.98613 -150.60608 1.0842609 0
-257.35129 -150.44719 1.0505874 0
-250.73889 -150.43451 1.0831065 0
-270.67474 -150.39128 1.0715996 0
-276.67673 -150.28108 1.0922329 0
-273.69266 -150.00406 1.0355712 0
-252.08498 -162.68462 1.1994944 0
-253.92078 -161.58083 1.1682847 0
-253.42618 -160.71733 1.1778924 0
-271.95782 -159.69943 1.103785 0
-259.8425 -158.82422 1.1239254 0
-250.8212 -158.4566 1.1817181 0
-273.62015 -158.34294 1.1259181 0
-273.47733 -158.06853 1.1629239 0
-274.25757 -157.88161 1.1179398 0
-274.54309 -157.60193 1.1033732 0
-274.40076 -157.6779 1.1258298 0
-274.81686 -156.61467 1.1358091 0
-277.8584 -154.56445 1.1500244 0
-283.97833 -152.31897 1.198625 0
-285.01767 -152.12527 1.1990478 0
-266.85013 -152.0074 1.1975862 0
-266.79929 -152.03775 1.1473793 0
-265.38824 -152.09009 1.1814862 0
-262.37659 -151.54736 1.1868763 0
-264.315 -151.467 1.1044515 0
-263.98813 -151.41537 1.1552607 0
-264.49759 -151.27975 1.1723968 0
-262.08813 -151.22858 1.1878214 0
-278.11392 -151.10477 1.1902386 0
-264.22702 -151.1723 1.1484325 0
-263.14099 -151.13585 1.1174643 0
-267.55298 -150.92293 1.1106834 0
-264.00446 -150.96669 1.1950911 0
-263.4216 -150.96921 1.1940913 0
-264.11365 -150.89532 1.1801187 0
-263.7348 -150.82648 1.1405642 0
-267.57541 -150.76352 1.1469108 0
-257.89642 -150.67259 1.1545848 0
-280.34726 -150.27383 1.1862121 0
-260.11676 -150.20401 1.1733879 0
-250.51384 -162.26425 1.2087346 0
-253.12039 -160.85002 1.2710884 0
-253.28821 -160.79662 1.2006992 0
-266.44391 -160.15724 1.25643 0
-251.40259 -158.72324 1.2191457 0
-272.73465 -156.42468 1.2946236 0
-284.61362 -155.81758 1.2008288 0
-264.22223 -152.74838 1.2083288 0
-274.552 -152.67624 1.2391884 0
-275.15924 -151.96471 1.2884955 0
-266.81299 -151.95146 1.2564354 0
-264.34467 -151.7878 1.2746446 0
-263.6868 -151.57568 1.2785343 0
-263.26816 -151.56693 1.2278843 0
-264.54346 -151.42149 1.2721566 0
-281.24811 -151.30159 1.2201321 0
-277.94791 -151.14392 1.2454214 0
-262.92426 -151.18822 1.2842585 0
-278.06 -151.09674 1.229189 0
-263.70233 -150.96883 1.2037429 0
-273.44507 -150.8885 1.20763 0
-270.77911 -150.40099 1.2625966 0
-257.29318 -150.36574 1.2844962 0
-253.98401 -161.65916 1.3428593 0
-271.31012 -160.93243 1.3236785 0
-264.84622 -159.68102 1.3497196 0
-252.13611 -159.5611 1.3585544 0
-276.85779 -159.33589 1.3706429 0
-267.26773 -159.09839 1.3187675 0
-273.78833 -158.51219 1.3504864 0
-267.50723 -157.90594 1.3799502 0
-264.58865 -155.53093 1.3436023 0
-255.73424 -154.21776 1.3347069 0
-269.21457 -154.11046 1.3778944 0
-264.85074 -152.82401 1.3748631 0
-266.90909 -151.95856 1.3896978 0
-266.86951 -151.99907 1.3119518 0
-276.13663 -151.86372 1.3948231 0
-266.7742 -151.87827 1.3653144 0
-262.8894 -151.75589 1.3554976 0
-280.70868 -151.09126 1.3740207 0
-263.03906 -151.0871 1.3910767 0
-263.0683 -150.93437 1.3729159 0
-260.71997 -150.97287 1.3122044 0
-264.06717 -150.89233 1.3207359 0
-285.3439 -150.69513 1.33538 0
-270.82224 -150.35043 1.377811 0
-287.31107 -150.22169 1.377699 0
-280.08765 -150.2433 1.3209094 0
-266.40073 -150.22792 1.3087802 0
-259.61398 -150.22189 1.3985957 0
-282.87405 -150.19273 1.3018205 0
-277.75571 -150.15411 1.3489302 0
-252.26343 -163.23605 1.4851029 0
-251.81749 -162.90338 1.4994448 0
-258.44513 -162.70764 1.4700373 0
-267.0874 -159.08102 1.4371806 0
-253.1499 -159.06836 1.4412247 0
-253.23874 -158.95798 1.4130546 0
-269.2991 -158.76598 1.4438856 0
-274.0636 -158.25034 1.4811975 0
-264.74329 -152.92647 1.4013059 0
-264.57526 -152.88921 1.4652382 0
-263.78848 -152.74803 1.4562951 0
-264.54944 -152.65775 1.4221685 0
-266.64285 -152.2115 1.4938272 0
-263.53455 -152.25739 1.4473854 0
-266.97708 -151.9026 1.4102006 0
-266.87549 -151.93846 1.4162406 0
-276.14163 -151.86157 1.4788761 0
-262.94122 -151.87627 1.4706076 0
-278.21994 -151.14171 1.4367584 0
-277.909 -150.98799 1.4852731 0
-260.87442 -150.85841 1.4711365 0
-283.58865 -150.07764 1.4009203 0
-272.77249 -160.23386 1.5403358 0
-273.60043 -159.66539 1.5130386 0
-272.4964 -159.27843 1.5068239 0
-268.16995 -158.73308 1.5830263 0
-273.87305 -158.43419 1.5231948 0
-285.0145 -155.94247 1.5252192 0
-284.72687 -155.72586 1.5084323 0
-255.27736 -154.12015 1.5712683 0
-263.11133 -154.09193 1.5539908 0
-284.27014 -152.97958 1.5250281 0
-262.55185 -152.65631 1.5214084 0
-284.29678 -152.50342 1.5420961 0
-285.00266 -151.65244 1.5831003 0
-280.60159 -151.30714 1.5750918 0
-280.64047 -151.11836 1.5577381 0
-278.28802 -151.13197 1.5404474 0
-261.42984 -151.01677 1.5790721 0
-260.70856 -150.94786 1.5350764 0
-260.66583 -150.81723 1.5393009 0
-260.87045 -150.73822 1.5066446 0
-262.33618 -150.69139 1.5885234 0
-259.78668 -150.02615 1.5047668 0
-253.13507 -160.74553 1.6936845 0
-273.60962 -160.60118 1.6685615 0
-276.75784 -159.43132 1.6461443 0
-275.54507 -159.37328 1.6867962 0
-272.05066 -159.38602 1.6614536 0
-272.30597 -159.17426 1.6697904 0
-267.19745 -159.13641 1.6702825 0
-269.30508 -158.80956 1.6648941 0
-273.63281 -158.66953 1.6864229 0
-273.95935 -158.49564 1.6763705 0
-274.76978 -157.87698 1.6108078 0
-267.61749 -157.84891 1.6343073 0
-266.80042 -155.37701 1.6052102 0
-269.25027 -154.08595 1.6569707 0
-284.25684 -152.42337 1.6460514 0
-262.73373 -152.12872 1.6412104 0
-263.14417 -151.46338 1.6427264 0
-263.07449 -151.43816 1.6357819 0
-261.67651 -151.1478 1.6441038 0
-262.23746 -151.01909 1.6661208 0
-260.66354 -150.76933 1.6564097 0
-270.71347 -150.38101 1.6405367 0
-273.65152 -150.0775 1.6288931 0
-260.02005 -150.00334 1.6784943 0
-253.19113 -160.64658 1.7308598 0
-272.15482 -159.3446 1.7671106 0
-267.27939 -159.15529 1.7409589 0
-260.0383 -157.01611 1.7474911 0
-263.23401 -151.90813 1.7801876 0
-261.21152 -151.79616 1.7563671 0
-285.129 -151.63583 1.7053958 0
-263.04819 -151.4073 1.7040392 0
-262.8179 -151.40437 1.7468446 0
-262.92725 -151.20889 1.7319385 0
-304.77802 -151.06934 1.7594223 0
-278.47809 -151.06299 1.7168984 0
-268.15179 -150.83867 1.7601972 0
-259.93198 -150.03952 1.7777816 0
-284.43338 -162.13493 1.8433444 0
-271.96851 -159.56071 1.8770924 0
-272.04132 -159.44225 1.8883808 0
-275.34601 -158.8289 1.8184351 0
-258.97653 -158.5153 1.8358231 0
-264.29315 -158.0211 1.8461219 0
-259.41556 -155.09903 1.8695194 0
-264.241 -152.54787 1.8583515 0
-266.56537 -152.25204 1.8789324 0
-263.86685 -152.13367 1.8886688 0
-263.7655 -152.01701 1.8506917 0
-267.02496 -151.91003 1.8812227 0
-266.98315 -151.92635 1.8520056 0
-263.92758 -151.90576 1.8759601 0
-262.61774 -151.83344 1.8456808 0
-283.9686 -151.74338 1.8963232 0
-262.78098 -151.74796 1.8930627 0
-261.05115 -151.5181 1.8696585 0
-262.84979 -151.18082 1.803353 0
-260.94699 -150.95174 1.8811225 0
-260.86871 -150.84969 1.8101348 0
-260.67453 -150.80774 1.8417166 0
-268.4346 -150.79173 1.872795 0
-270.69543 -150.43311 1.8311547 0
-280.1676 -150.1778 1.8854545 0
-271.41873 -160.8006 1.9228638 0
-253.15158 -160.6814 1.9464841 0
-271.70215 -159.76823 1.9246358 0
-271.58713 -159.79636 1.9004219 0
-273.77625 -159.66673 1.9247997 0
-272.11108 -159.44443 1.9394624 0
-272.15009 -159.36215 1.9457287 0
-273.91693 -158.62372 1.9118474 0
-273.65543 -158.60854 1.9422606 0
-273.47168 -158.51105 1.9294934 0
-274.08591 -158.48996 1.9960291 0
-273.86203 -158.27298 1.9368473 0
-268.7449 -156.80641 1.9563756 0
-272.48126 -156.72464 1.9750398 0
-255.82851 -155.60686 1.9321226 0
-263.06281 -154.05786 1.91414 0
-264.2695 -152.23337 1.9087572 0
-263.8277 -152.24483 1.9902585 0
-264.57498 -152.03894 1.9504449 0
-263.854 -152.01759 1.9405885 0
-264.13675 -151.93477 1.9640416 0
-263.51486 -151.97607 1.97035 0
-263.46545 -151.94226 1.9583658 0
-261.17984 -151.94327 1.9941431 0
-264.31586 -151.89206 1.9569365 0
-263.60855 -151.88908 1.937422 0
-262.64221 -151.85161 1.9182976 0
-264.10065 -151.76514 1.9114943 0
-264.0788 -151.78328 1.9189618 0
-263.78629 -151.72566 1.965467 0
-260.09201 -151.71269 1.9870973 0
-263.49225 -151.60857 1.9605945 0
-264.00131 -151.5896 1.9953202 0
-263.67255 -151.46501 1.9395347 0
-285.22037 -151.39897 1.9167 0
-268.05411 -151.18851 1.9713625 0
-262.02005 -151.18604 1.91751 0
-261.65408 -150.93285 1.9649622 0
-268.61725 -150.81412 1.9856901 0
-260.69559 -150.81544 1.9190267 0
-268.71991 -150.62857 1.9727458 0
-266.96744 -150.2802 1.9249555 0
-280.18362 -150.15533 1.9220614 0
-273.65829 -150.12946 1.975737 0
-273.52509 -150.12781 1.9721763 0
-267.77124 -150.11264 1.9173639 0
-267.58075 -150.13069 1.9860474 0
-258.38806 -161.51955 2.0031514 0
-266.51776 -161.18446 2.0516043 0
-271.29974 -160.86729 2.0903795 0
-272.87152 -159.67159 2.0189903 0
-272.54123 -159.6998 2.0287297 0
-272.92346 -159.42827 2.0912378 0
-260.64569 -159.26741 2.0714412 0
-260.58078 -159.22318 2.0598862 0
-268.10068 -158.6989 2.0412817 0
-263.68002 -158.67462 2.0542674 0
-263.57303 -158.68584 2.0467224 0
-272.51102 -156.6994 2.0289872 0
-280.81955 -154.90184 2.009629 0
-284.457 -153.46227 2.0645397 0
-273.51495 -152.85782 2.0210378 0
-273.44843 -152.86473 2.083652 0
-266.51587 -152.33356 2.021275 0
-263.49893 -151.92531 2.0228889 0
-263.34027 -151.91183 2.0629768 0
-263.78241 -151.80328 2.0959077 0
-263.44171 -151.81534 2.0096843 0
-283.86298 -151.77835 2.057348 0
-283.95361 -151.65128 2.0019376 0
-266.03693 -151.61194 2.0985792 0
-264.42734 -151.67216 2.0509839 0
-264.26169 -151.67955 2.0263727 0
-264.10437 -151.61038 2.0660858 0
-284.25089 -151.55626 2.0339391 0
-283.81775 -151.534 2.0341594 0
-261.11469 -151.50906 2.0111051 0
-263.63937 -151.46024 2.099062 0
-268.61389 -151.27625 2.0793176 0
-268.82709 -150.84067 2.0892026 0
-260.84793 -150.80148 2.0658393 0
-260.50253 -150.71002 2.0298026 0
-270.7655 -150.37698 2.0234888 0
-261.04056 -150.39429 2.0649283 0
-267.80112 -150.28085 2.0450633 0
-273.7084 -150.12453 2.0394039 0
-273.5397 -150.14116 2.0068524 0
-273.16473 -160.77647 2.1732631 0
-253.29582 -160.68509 2.1801095 0
-253.07521 -160.67471 2.1754043 0
-272.84406 -160.45558 2.1705208 0
-273.20074 -159.62144 2.1901975 0
-272.75412 -159.41574 2.1717103 0
-277.06885 -159.32314 2.1601896 0
-252.71149 -159.02907 2.1585655 0
-262.95847 -154.14157 2.1981602 0
-264.40521 -152.71825 2.1920805 0
-263.36429 -152.67677 2.194797 0
-284.54623 -152.58961 2.1112628 0
-262.93274 -152.48824 2.1122203 0
-262.4317 -152.24756 2.160111 0
-263.10742 -152.05383 2.1889446 0
-262.54907 -152.01074 2.1900458 0
-262.55963 -151.95807 2.1504476 0
-262.34097 -151.94376 2.1381395 0
-275.9711 -151.80443 2.1552508 0
-285.21292 -151.70506 2.1510186 0
-285.18729 -151.76154 2.1535313 0
-264.36832 -151.74713 2.1203682 0
-263.19281 -151.7509 2.1175644 0
-263.72333 -151.64064 2.1722548 0
-264.17581 -151.54922 2.1794403 0
-264.09973 -151.58656 2.1695254 0
-263.73642 -151.56114 2.1336453 0
-263.42474 -151.5246 2.1355259 0
-263.34937 -151.16559 2.1609597 0
-280.82181 -151.08035 2.1687942 0
-267.90598 -151.02637 2.1154332 0
-266.89731 -151.0076 2.1544411 0
-260.85553 -150.76268 2.1650877 0
-260.65656 -150.76695 2.1706643 0
-260.59647 -150.78491 2.1069 0
-280.1517 -150.11572 2.1565292 0
-273.72791 -150.14058 2.1194189 0
-253.73465 -161.62201 2.2978525 0
-269.59238 -161.34319 2.2967839 0
-271.82745 -159.79729 2.2154827 0
-276.80392 -159.5107 2.2149453 0
-271.66449 -159.5179 2.2354133 0
-273.07596 -159.27011 2.2855568 0
-275.7673 -159.02031 2.2985651 0
-252.62869 -159.07138 2.2426839 0
-268.1539 -158.73915 2.2995725 0
-268.0582 -158.68344 2.2141519 0
-284.63116 -152.53386 2.2183599 0
-263.26581 -152.01288 2.2982459 0
-262.62003 -151.70685 2.2316394 0
-285.69775 -151.57802 2.2573287 0
-264.4856 -151.50294 2.2326283 0
-263.21655 -151.50366 2.2385716 0
-285.2045 -151.2952 2.2010119 0
-263.61688 -151.26567 2.2679038 0
-260.79651 -150.84424 2.2417207 0
-260.79785 -150.7326 2.291996 0
-260.63934 -150.76288 2.2964151 0
-256.96594 -150.76465 2.299871 0
-267.65582 -150.6813 2.2084084 0
-257.18274 -150.53648 2.2346492 0
-269.39059 -150.40402 2.27757 0
-262.35007 -150.45 2.2778041 0
-266.11984 -161.79514 2.3371553 0
-253.26013 -160.68063 2.3857448 0
-253.19069 -160.6738 2.3872199 0
-254.86197 -160.16254 2.3827262 0
-275.24741 -159.78189 2.3373177 0
-264.71225 -159.66319 2.3973775 0
-275.81085 -159.45317 2.3600705 0
-277.07574 -159.33412 2.3944986 0
-272.78256 -159.35594 2.3052318 0
-268.15781 -158.72008 2.3769269 0
-274.13525 -158.10614 2.3875453 0
-274.98312 -157.849 2.3166316 0
-273.98901 -157.80971 2.3074651 0
-269.4371 -154.2894 2.3072612 0
-263.14206 -154.00737 2.3665962 0
-266.50943 -152.63779 2.3702855 0
-298.86688 -152.42642 2.3376341 0
-262.95407 -152.31847 2.3977184 0
-262.77899 -152.28281 2.3353853 0
-262.77576 -152.08524 2.3924048 0
-263.31531 -151.96324 2.3815563 0
-262.87766 -151.83636 2.3494205 0
-282.04782 -151.74519 2.375175 0
-263.64395 -151.6274 2.3895934 0
-285.22168 -151.16234 2.3836615 0
-285.14688 -150.9818 2.3819635 0
-260.91962 -150.90041 2.3767486 0
-275.76743 -150.89105 2.3535109 0
-260.80948 -150.74608 2.3391232 0
-260.6127 -150.74568 2.3505518 0
-257.13116 -150.53624 2.3847859 0
-279.86865 -150.39839 2.3198056 0
-259.44772 -150.12216 2.356148 0
-251.94327 -163.47357 2.4053774 0
-269.54218 -161.31398 2.4089253 0
-271.91608 -159.60406 2.4233093 0
-273.08893 -159.37033 2.487963 0
-273.49109 -156.28349 2.4736526 0
-273.02115 -153.00192 2.4197941 0
-279.12811 -152.98273 2.4348505 0
-266.47348 -152.78828 2.4789963 0
-263.02112 -151.9388 2.4632938 0
-263.16458 -150.81413 2.4978487 0
-256.20758 -150.84708 2.4073265 0
-273.3566 -150.28165 2.4732869 0
-273.35446 -150.13356 2.4258015 0
-270.14755 -161.78268 2.5149755 0
-251.37321 -161.28708 2.5228262 0
-253.05585 -160.65628 2.5199192 0
-264.51889 -160.12677 2.5583413 0
-255.22932 -160.12698 2.5545385 0
-271.75208 -159.88828 2.5901866 0
-272.08209 -159.50113 2.5269275 0
-268.18311 -158.74606 2.5739169 0
-268.03897 -158.75951 2.5890644 0
-263.20709 -158.424 2.5786173 0
-263.94626 -157.16678 2.5825684 0
-284.9444 -156.11842 2.5708601 0
-269.55414 -154.0242 2.5331745 0
-254.78954 -153.72037 2.5818739 0
-274.44519 -153.17175 2.5892575 0
-274.73755 -152.65273 2.5239601 0
-284.36096 -152.34607 2.560416 0
-263.45114 -152.06334 2.5007768 0
-282.1236 -151.82523 2.5629973 0
-263.90109 -151.82507 2.5269544 0
-263.0596 -151.81396 2.5810564 0
-282.01514 -151.78642 2.5684581 0
-285.26797 -151.62782 2.5306027 0
-263.12747 -151.69202 2.5507374 0
-261.03046 -151.64702 2.5041909 0
-263.62964 -151.56009 2.5967851 0
-263.46793 -151.46458 2.5753131 0
-263.31488 -151.08717 2.5912161 0
-263.37946 -150.98518 2.5407205 0
-255.65517 -150.95338 2.5083263 0
-263.32965 -150.85124 2.5255747 0
-279.74408 -150.37314 2.5378821 0
-273.35925 -150.04945 2.5910447 0
-282.22424 -164.222 2.6223102 0
-282.8999 -162.42247 2.6948287 0
-253.02042 -160.59898 2.6925118 0
-273.39685 -160.12161 2.6677675 0
-271.79803 -159.84911 2.652885 0
-271.95801 -159.6741 2.6165097 0
-276.93039 -159.39641 2.6591034 0
-277.06235 -159.28474 2.6422586 0
-258.4259 -158.54027 2.62414 0
-274.18201 -158.24161 2.6358886 0
-267.5658 -157.80852 2.613338 0
-285.5864 -154.34703 2.6880643 0
-286.70239 -154.09363 2.6268103 0
-269.59036 -153.9263 2.6736758 0
-285.93732 -152.94461 2.6611311 0
-284.7384 -152.58249 2.6164844 0
-264.0452 -152.32333 2.6901088 0
-263.90527 -152.30862 2.6714911 0
-263.05365 -152.29112 2.6706448 0
-282.0954 -151.89886 2.6741474 0
-267.24225 -151.84074 2.6365328 0
-281.9776 -151.76373 2.6258395 0
-285.3501 -151.66812 2.6526818 0
-285.26852 -151.56738 2.637531 0
-263.1907 -151.53918 2.6823881 0
-285.24716 -151.4313 2.6955588 0
-262.60565 -151.45264 2.6629803 0
-263.37094 -151.27844 2.6181874 0
-260.82404 -150.71362 2.6498244 0
-273.35794 -150.47144 2.6716173 0
-273.26575 -150.40143 2.6602869 0
-278.26562 -150.22704 2.6321845 0
-278.12326 -150.29431 2.6947863 0
-278.36096 -150.10063 2.6208549 0
-283.05807 -163.92854 2.776181 0
-253.76653 -161.59613 2.791446 0
-253.64217 -161.56047 2.7225623 0
-274.21716 -160.65392 2.7936578 0
-252.76097 -160.63287 2.7452204 0
-273.08984 -160.40573 2.7316439 0
-273.23248 -160.31256 2.7031024 0
-272.70831 -160.24629 2.7220752 0
-272.87054 -160.14067 2.7121391 0
-264.64197 -159.73332 2.7694595 0
-272.21817 -159.45297 2.7053833 0
-272.83655 -159.32497 2.7966409 0
-283.16257 -159.09193 2.7137403 0
-267.57898 -157.75015 2.7371473 0
-285.81189 -155.70387 2.7155046 0
-285.66837 -154.4297 2.7431068 0
-285.69666 -154.397 2.7355807 0
-285.59116 -154.26817 2.7656379 0
-269.68173 -153.94354 2.7728798 0
-274.29749 -152.60715 2.7423015 0
-299.01236 -152.41461 2.7968447 0
-264.03906 -152.37231 2.708287 0
-262.685 -152.3371 2.7072296 0
-286.2233 -152.26891 2.7047994 0
-266.03583 -151.9095 2.7070029 0
-263.87439 -151.90501 2.7932303 0
-282.17493 -151.84966 2.7805839 0
-267.33853 -151.83661 2.7789233 0
-263.29593 -151.86642 2.7969975 0
-286.51083 -151.70436 2.7749846 0
-267.27878 -151.72424 2.7678385 0
-263.64301 -151.75456 2.7053983 0
-286.64468 -151.69289 2.7839015 0
-285.7868 -151.64369 2.7265017 0
-263.95349 -151.66917 2.7220628 0
-263.78183 -151.67117 2.7882693 0
-263.25308 -151.61777 2.7422202 0
-263.04211 -151.64435 2.7032754 0
-285.22324 -151.54659 2.7419939 0
-263.88943 -151.59813 2.7858548 0
-285.34732 -151.4791 2.7892902 0
-263.32855 -151.2442 2.7473955 0
-280.58231 -151.08711 2.7744579 0
-279.71103 -150.3069 2.7009177 0
-280.10114 -150.02779 2.7271154 0
-273.18301 -150.04662 2.783025 0
-282.18961 -164.56773 2.8153484 0
-283.56406 -162.54384 2.8949897 0
-273.01035 -159.58777 2.8688338 0
-272.19247 -159.43219 2.8026941 0
-268.13235 -158.71976 2.8977063 0
-274.0509 -158.63437 2.8583434 0
-279.61612 -155.50047 2.8213525 0
-285.59378 -154.13542 2.8088777 0
-262.75977 -154.10561 2.8767042 0
-263.10236 -154.09598 2.8884892 0
-298.70255 -152.53749 2.8569365 0
-284.50348 -152.218 2.8556943 0
-263.16138 -152.29318 2.8826017 0
-286.95041 -151.95459 2.8567555 0
-282.31235 -151.88193 2.8494549 0
-267.35614 -151.78806 2.8743377 0
-263.80667 -151.64145 2.8820608 0
-263.41641 -151.60521 2.8660958 0
-259.36029 -151.64581 2.8396149 0
-263.05399 -151.24535 2.8182623 0
-280.79514 -151.08307 2.8379877 0
-266.67636 -161.48167 2.9691882 0
-273.82016 -160.36269 2.9415469 0
-272.96472 -160.36176 2.92872 0
-267.24231 -159.34166 2.9959393 0
-272.23767 -159.22121 2.9689827 0
-274.2355 -158.3199 2.9217305 0
-267.43137 -157.64284 2.9992006 0
-284.4621 -156.1514 2.9682286 0
-269.66898 -153.87607 2.9608316 0
-284.86215 -152.59032 2.938545 0
-273.9411 -152.50508 2.9034593 0
-263.82584 -152.47104 2.9666364 0
-287.82275 -152.27968 2.9634593 0
-284.62061 -152.08623 2.9870985 0
-299.36978 -151.95885 2.9830675 0
-262.95285 -151.91182 2.944042 0
-287.87366 -151.71268 2.9853446 0
-263.37823 -151.64032 2.9509335 0
-263.08328 -151.62782 2.9330778 0
-262.89133 -151.23442 2.9321046 0
-280.76602 -151.09547 2.9204013 0
-263.0239 -151.08401 2.9185216 0
-279.57318 -150.35063 2.9773624 0
-273.20392 -150.04543 2.9767339 0
-282.90347 -163.52664 3.0701244 0
-251.60318 -163.59348 3.0489881 0
-253.5549 -161.49973 3.0802917 0
-252.88959 -160.60072 3.0637696 0
-273.35663 -160.1252 3.0166669 0
-281.10504 -159.36684 3.073209 0
-268.25983 -158.74016 3.0852549 0
-267.56805 -157.68813 3.06181 0
-272.35095 -156.9846 3.0168126 0
-263.78754 -156.31549 3.0482047 0
-286.82123 -155.55237 3.0820198 0
-262.93274 -153.97594 3.0379672 0
-262.87363 -153.36752 3.0268209 0
-282.43359 -151.8754 3.0225134 0
-263.6752 -151.86963 3.0614963 0
-263.38971 -151.56491 3.0526011 0
-263.27512 -151.56207 3.0455246 0
-285.47083 -151.45618 3.0761905 0
-280.59033 -151.06374 3.0950682 0
-284.92548 -150.68097 3.020381 0
-260.68643 -150.66718 3.0284247 0
-279.42792 -150.31641 3.0507689 0
-279.388 -150.37427 3.0397162 0
-273.22092 -167.39018 3.1674278 0
-274.11963 -160.62534 3.1586256 0
-275.59531 -159.47089 3.1455417 0
-268.13263 -158.6553 3.1668181 0
-275.51401 -158.52808 3.1369486 0
-274.39813 -158.3512 3.1778493 0
-259.4859 -155.06348 3.1906822 0
-270.142 -154.53647 3.1807947 0
-280.93661 -154.21555 3.1851125 0
-269.70746 -153.79671 3.1423361 0
-284.86319 -152.8208 3.102392 0
-284.98108 -152.39227 3.172019 0
-263.22015 -152.22047 3.1397069 0
-263.23813 -152.1324 3.1658123 0
-267.0657 -152.08302 3.158179 0
-282.45856 -151.9619 3.1710989 0
-282.26895 -151.95923 3.1216421 0
-278.59985 -151.81578 3.1656225 0
-267.41544 -151.77411 3.1331918 0
-281.08658 -151.68214 3.1772938 0
-267.41187 -151.69626 3.1395638 0
-263.35831 -151.61287 3.1025181 0
-285.56 -151.54103 3.1375098 0
-261.79547 -151.33423 3.1877589 0
-260.72198 -150.64395 3.1697209 0
-260.61633 -150.65125 3.1671419 0
-284.97137 -150.56313 3.1581666 0
-260.70755 -150.56496 3.1838272 0
-251.49849 -163.03845 3.2493258 0
-252.85638 -160.58179 3.2927544 0
-252.79343 -160.56221 3.2956767 0
-271.9017 -160.01283 3.2407794 0
-254.89168 -160.02446 3.2936962 0
-271.83426 -159.92731 3.2799959 0
-254.82245 -159.93289 3.2904952 0
-275.62573 -159.50453 3.2189927 0
-275.59473 -159.42204 3.2843075 0
-264.89545 -159.30327 3.2853837 0
-272.55664 -159.27786 3.2918088 0
-258.19028 -158.67265 3.2063799 0
-275.56876 -158.4077 3.2641883 0
-273.98807 -158.2643 3.2421126 0
-285.07602 -156.20688 3.2342708 0
-263.32034 -156.04401 3.2932463 0
-262.74106 -154.10507 3.2501922 0
-269.28909 -154.06351 3.2427051 0
-262.83295 -154.02634 3.2432489 0
-269.73956 -153.85794 3.2250767 0
-284.73489 -153.2063 3.271009 0
-262.73584 -152.47429 3.2753406 0
-285.06293 -152.38335 3.2575555 0
-298.66214 -152.23277 3.2523062 0
-263.68042 -152.26038 3.2863634 0
-263.18518 -152.2446 3.2839808 0
-263.08493 -152.23921 3.2092471 0
-263.27536 -152.10336 3.2325151 0
-275.11279 -152.05598 3.2550993 0
-282.5874 -151.99335 3.2118938 0
-273.45453 -151.82227 3.296237 0
-277.96167 -151.79054 3.2123158 0
-260.85199 -150.5717 3.2852333 0
-260.73712 -150.56317 3.259356 0
-283.85413 -150.41325 3.2408655 0
-270.37411 -161.86597 3.3311937 0
-253.52725 -161.45273 3.3410413 0
-275.53296 -159.46782 3.3150718 0
-272.29526 -159.46568 3.3547175 0
-273.92133 -158.47243 3.3526294 0
-273.99747 -158.35236 3.3247292 0
-267.62543 -157.64594 3.3041611 0
-281.93295 -155.1579 3.3925288 0
-262.96176 -153.92262 3.3060579 0
-269.73727 -153.73996 3.3313282 0
-269.6926 -153.76637 3.3276136 0
-266.5231 -153.33144 3.3129995 0
-262.83987 -152.90152 3.3188941 0
-282.73007 -152.17487 3.3688514 0
-263.72363 -152.13905 3.3893735 0
-263.40833 -152.13428 3.3591709 0
-282.56842 -151.98245 3.334682 0
-282.14389 -151.9505 3.3290732 0
-282.44571 -151.89095 3.3148532 0
-263.46967 -151.81918 3.3045771 0
-267.5766 -151.72614 3.3092203 0
-278.22852 -151.5804 3.3817682 0
-281.13669 -150.84224 3.3929305 0
-257.07181 -150.50529 3.3826725 0
-266.20703 -160.15094 3.4294343 0
-273.48337 -159.99986 3.4112501 0
-272.81445 -159.79402 3.4864335 0
-280.3606 -159.54005 3.4549649 0
-267.13934 -159.33534 3.4341562 0
-267.08002 -159.29111 3.4345863 0
-260.15628 -159.11887 3.4098012 0
-272.65143 -159.06622 3.4995382 0
-257.59521 -158.56052 3.4453266 0
-273.89706 -158.48283 3.4011312 0
-272.34576 -156.99548 3.4236267 0
-284.11868 -156.05202 3.4945171 0
-262.94437 -153.98563 3.4451413 0
-276.58942 -152.17285 3.4337034 0
-274.93607 -152.15346 3.4709942 0
-282.71527 -152.02687 3.4387553 0
-282.65234 -152.04259 3.4973536 0
-281.80478 -152.00073 3.4958875 0
-263.3472 -152.03632 3.4677291 0
-263.39804 -151.96529 3.4496648 0
-305.10281 -151.77654 3.4669733 0
-267.33365 -151.73051 3.4264922 0
-285.55997 -151.26595 3.4736433 0
-279.08099 -150.28273 3.4290905 0
-278.99237 -150.28239 3.4743135 0
-272.5242 -150.11592 3.4403427 0
-272.77536 -160.27936 3.5884616 0
-278.2597 -159.61513 3.5087049 0
-278.12457 -159.6179 3.5012844 0
-278.26846 -159.52008 3.5944905 0
-277.3815 -159.5303 3.5569005 0
-272.29901 -159.59889 3.5516236 0
-272.9548 -159.17657 3.5443356 0
-264.85889 -159.15718 3.5650377 0
-272.58865 -158.98836 3.5835254 0
-268.21957 -158.63644 3.5963411 0
-274.08194 -158.21982 3.5077679 0
-275.48749 -157.98756 3.5225046 0
-269.79752 -153.72269 3.5996504 0
-265.86545 -153.44096 3.5875885 0
-282.79221 -152.1395 3.5135844 0
-267.1246 -152.00546 3.5062246 0
-282.53763 -151.98886 3.508584 0
-267.70526 -151.7782 3.5290451 0
-281.44644 -151.31575 3.5112238 0
-281.39932 -151.32866 3.5459521 0
-280.48303 -151.16493 3.538234 0
-260.46335 -150.71257 3.5492721 0
-260.91901 -150.42674 3.5262716 0
-260.80139 -150.35139 3.575341 0
-279.00287 -150.29176 3.5257139 0
-251.73647 -163.57834 3.623111 0
-253.30553 -161.41475 3.6382382 0
-271.8374 -161.06541 3.6944306 0
-252.84837 -160.526 3.6710615 0
-252.64232 -160.57677 3.6162233 0
-264.40329 -160.3831 3.6737783 0
-273.38336 -160.24289 3.6908834 0
-272.19885 -159.70981 3.6383688 0
-272.2182 -159.69121 3.6903443 0
-278.87418 -159.59541 3.6411276 0
-275.95343 -159.47919 3.6014185 0
-264.83667 -159.35501 3.60495 0
-264.54153 -159.10829 3.6166713 0
-272.64398 -158.92302 3.6129587 0
-268.34058 -158.72807 3.6276934 0
-268.21674 -158.68124 3.6602638 0
-257.38913 -158.50497 3.6490312 0
-262.69531 -158.26334 3.6396599 0
-284.09009 -155.08734 3.6592126 0
-262.72311 -153.91954 3.6956208 0
-259.7276 -153.91602 3.6309676 0
-269.87436 -153.69574 3.6685963 0
-266.70624 -153.63573 3.6051328 0
-266.66174 -153.61255 3.6148612 0
-284.77408 -153.31403 3.6103449 0
-265.79211 -153.38332 3.6844292 0
-305.05087 -152.89116 3.6088514 0
-282.74286 -152.04437 3.6504202 0
-263.30942 -152.03055 3.6982524 0
-282.53992 -151.85744 3.6472077 0
-286.21439 -151.35603 3.6738596 0
-285.7709 -151.28578 3.6228266 0
-280.47543 -151.12354 3.6957757 0
-258.9523 -150.75517 3.6497235 0
-260.88821 -150.25797 3.627002 0
-273.22717 -150.00763 3.6419144 0
-283.97998 -165.40805 3.7082326 0
-253.58049 -161.38676 3.7197649 0
-253.36031 -161.37465 3.7200525 0
-252.73555 -160.40485 3.7766666 0
-273.48972 -159.71548 3.7670248 0
-277.31247 -159.41727 3.767319 0
-273.24091 -159.48288 3.7614565 0
-267.59476 -157.52493 3.7946577 0
-297.44714 -156.68666 3.7764969 0
-263.51355 -156.02516 3.7985277 0
-263.42682 -156.00426 3.7383313 0
-262.63873 -153.95706 3.7879314 0
-285.36877 -152.29346 3.7057607 0
-267.63672 -151.86191 3.7443991 0
-267.58743 -151.80255 3.7784224 0
-286.22598 -151.4455 3.7565072 0
-256.02383 -151.40001 3.7473626 0
-285.82996 -151.22537 3.7539918 0
-257.05069 -150.52765 3.7947154 0
-278.71265 -150.23517 3.719388 0
-252.29094 -165.16754 3.824486 0
-251.17641 -163.28302 3.894033 0
-253.47128 -161.3647 3.8043971 0
-264.33023 -160.56473 3.874115 0
-254.6521 -159.84332 3.8974235 0
-277.50748 -159.49387 3.8025973 0
-277.41251 -159.47179 3.8242652 0
-276.05533 -159.40611 3.8737833 0
-275.33362 -159.37123 3.8032651 0
-268.17953 -158.77066 3.8457737 0
-279.52237 -156.86328 3.8990891 0
-262.67551 -156.17174 3.8953552 0
-262.77951 -153.82465 3.8140221 0
-262.88272 -153.78317 3.8184791 0
-277.09384 -151.24603 3.8838248 0
-280.62189 -151.13718 3.8269093 0
-280.46219 -151.10239 3.8898389 0
-278.4556 -150.26338 3.8804867 0
-260.7897 -150.19762 3.8413148 0
-255.23215 -150.09702 3.8806574 0
-283.33258 -163.83273 3.9771452 0
-252.53011 -160.49167 3.9420438 0
-273.03577 -159.86412 3.9815133 0
-272.84021 -159.77603 3.9607916 0
-276.04086 -159.48727 3.9202743 0
-267.32443 -159.46632 3.9251614 0
-264.7822 -159.31303 3.9157422 0
-268.42258 -158.88091 3.9018345 0
-275.21225 -158.40958 3.9364538 0
-257.23898 -158.44977 3.9153948 0
-263.77759 -157.82587 3.9238875 0
-284.78336 -153.42995 3.961863 0
-265.24362 -152.91855 3.973752 0
-265.06644 -152.79178 3.9748373 0
-265.08838 -152.67863 3.9889281 0
-285.6087 -152.40575 3.9810381 0
-296.59439 -152.25699 3.9947367 0
-286.43384 -151.46031 3.9082501 0
-280.41885 -151.16747 3.9660418 0
-277.10486 -151.17097 3.9419005 0
-280.44931 -151.09886 3.9419892 0
-303.92661 -150.83891 3.9314675 0
-283.17789 -150.51051 3.9695117 0
-278.38452 -150.2439 3.9259329 0
-278.25043 -150.25952 3.971379 0
-261.02502 -150.09244 3.9146187 0
-260.95239 -150.04507 3.9433336 0
-250.26791 -164.67296 4.0884733 0
-260.80634 -164.40123 4.0814648 0
-260.73041 -164.44464 4.0836091 0
-278.74826 -160.92296 4.0305724 0
-278.30881 -160.60805 4.0796432 0
-278.44449 -160.502 4.0734677 0
-278.56952 -160.45097 4.0430231 0
-252.54323 -160.40486 4.0180964 0
-264.79602 -159.24905 4.0989943 0
-275.3783 -158.10672 4.0433631 0
-266.89075 -157.65591 4.0355706 0
-267.66534 -157.44571 4.0418205 0
-267.70258 -157.36522 4.0438933 0
-267.59354 -157.38631 4.0768971 0
-284.90997 -155.44505 4.013947 0
-262.88351 -153.77864 4.0438118 0
-257.01666 -153.69502 4.0494804 0
-297.47568 -152.41782 4.0874019 0
-267.81296 -151.91119 4.0846038 0
-280.3736 -151.22424 4.0938101 0
-280.61487 -151.06252 4.0660892 0
-280.4556 -151.07954 4.0544086 0
-278.17447 -150.23042 4.0889783 0
-268.27972 -169.58383 4.1905012 0
-252.68202 -165.55031 4.1709557 0
-250.59688 -164.73471 4.1402683 0
-250.89922 -163.44641 4.1411228 0
-251.20386 -163.25938 4.1688356 0
-272.99222 -162.70123 4.1546149 0
-253.24205 -161.34161 4.120378 0
-272.71805 -159.64401 4.1202374 0
-272.60828 -159.6546 4.1097188 0
-276.17911 -159.48218 4.1801386 0
-275.35431 -159.42969 4.1096549 0
-276.04056 -159.26389 4.1653523 0
-267.55481 -157.45723 4.1878138 0
-263.0332 -153.99701 4.1581426 0
-262.86975 -153.71068 4.1699576 0
-279.54965 -152.50391 4.1659112 0
-282.82742 -152.19273 4.1236305 0
-286.76804 -151.34023 4.155869 0
-286.05228 -151.13216 4.1691794 0
-280.61978 -151.13194 4.1461215 0
-260.4729 -150.59229 4.1976871 0
-278.28781 -150.11707 4.1272659 0
-250.22887 -150.05173 4.1855998 0
-250.55557 -164.71053 4.2357774 0
-272.21909 -160.42917 4.2352543 0
-266.065 -160.21178 4.2909961 0
-273.0148 -159.99036 4.2230606 0
-276.26471 -159.60635 4.2680411 0
-277.53574 -159.51524 4.2302046 0
-276.07321 -159.48462 4.2958512 0
-267.17276 -159.43597 4.2053328 0
-260.08698 -159.4901 4.2878571 0
-277.93454 -158.43536 4.2744293 0
-256.95276 -158.44586 4.2070384 0
-275.35376 -157.72787 4.2827983 0
-267.58362 -157.34061 4.2794008 0
-259.49609 -154.85744 4.2823663 0
-262.94208 -153.86153 4.2026401 0
-262.76862 -153.75482 4.2258363 0
-285.86694 -152.36798 4.2354422 0
-267.892 -151.94104 4.2153573 0
-304.90814 -151.30391 4.202034 0
-280.35828 -151.13817 4.2937784 0
-286.27609 -151.04895 4.2369061 0
-280.63327 -151.02151 4.267323 0
-280.52698 -151.07571 4.2657781 0
-303.85654 -150.78723 4.2675328 0
-277.61307 -150.75819 4.2050719 0
-277.88641 -150.48921 4.2000484 0
-271.78281 -150.4653 4.2158637 0
-250.16064 -150.3186 4.2167411 0
-277.9053 -150.2364 4.2195401 0
-277.88541 -150.24728 4.2606063 0
-282.34094 -164.88869 4.3209858 0
-250.07953 -164.63426 4.3608613 0
-251.68904 -164.03752 4.3156161 0
-273.08295 -162.6516 4.3716402 0
-253.43057 -161.33539 4.3596144 0
-253.37936 -161.30919 4.3289719 0
-253.28523 -161.35555 4.3538527 0
-273.68228 -160.75197 4.3880701 0
-272.53705 -160.0667 4.3827929 0
-276.52151 -159.8795 4.3704824 0
-267.27997 -159.43048 4.3706837 0
-267.1286 -159.39937 4.3017678 0
-260.28848 -159.31049 4.3610911 0
-267.44302 -157.42148 4.3602729 0
-262.63602 -153.85486 4.3994546 0
-262.5946 -153.86586 4.3903089 0
-263.41113 -153.73532 4.3942657 0
-262.6907 -153.79977 4.38238 0
-285.86377 -152.42682 4.3836188 0
-282.99756 -152.20439 4.3569694 0
-282.87402 -152.15829 4.3023758 0
-267.83823 -152.03424 4.3197694 0
-305.39127 -151.92136 4.3598413 0
-267.8663 -151.97824 4.3175721 0
-286.73672 -150.9436 4.3999443 0
-286.04495 -150.92899 4.3149414 0
-286.10678 -150.86014 4.3523302 0
-275.86145 -150.30415 4.3678393 0
-281.543 -163.32146 4.4124413 0
-251.32259 -163.27827 4.4866238 0
-283.22067 -162.56653 4.4324903 0
-253.1911 -161.2989 4.4094601 0
-272.28653 -160.59723 4.4714265 0
-272.98734 -160.30722 4.4429245 0
-252.52831 -160.08617 4.4592872 0
-252.45869 -160.06633 4.4561744 0
-252.33598 -160.02452 4.4160686 0
-264.16937 -159.90057 4.432476 0
-268.36826 -158.75609 4.4177165 0
-275.07751 -158.16042 4.4039717 0
-275.27203 -157.63213 4.4434772 0
-275.39679 -157.53281 4.4193735 0
-263.40115 -156.12706 4.4895501 0
-285.08688 -155.93968 4.471591 0
-296.76373 -153.85223 4.4195061 0
-262.76672 -153.72209 4.4662156 0
-262.80295 -153.69728 4.460041 0
-262.76932 -153.68971 4.4975495 0
-286.18829 -152.52715 4.4603658 0
-282.7879 -152.41386 4.4538264 0
-276.60278 -152.32191 4.4882402 0
-283.08371 -152.19525 4.4540958 0
-280.39142 -151.08102 4.455214 0
-287.15295 -150.90132 4.4496498 0
-286.70587 -150.91861 4.4409637 0
-286.9794 -150.89822 4.4426527 0
-256.44858 -150.6087 4.4741535 0
-260.32852 -150.50171 4.4341168 0
-260.4617 -150.49229 4.4579425 0
-260.30634 -150.49084 4.4602399 0
-277.67426 -150.20679 4.4424458 0
-275.78598 -150.22482 4.4500422 0
-275.64178 -150.20668 4.4773445 0
-277.60458 -150.14012 4.4450841 0
-275.76047 -150.18037 4.4902301 0
-275.61148 -150.14401 4.437449 0
-275.2706 -150.12904 4.4814672 0
-283.31693 -163.17311 4.5037827 0
-281.85776 -163.00536 4.5291314 0
-253.18591 -161.31755 4.5480132 0
-273.70364 -160.76071 4.5459604 0
-272.73505 -160.3107 4.5107117 0
-272.99203 -160.07033 4.5866132 0
-272.60538 -160.06076 4.5387149 0
-272.45105 -160.02002 4.5128665 0
-252.27876 -159.95874 4.5897808 0
-260.198 -159.21724 4.5809379 0
-268.19656 -158.77699 4.511806 0
-268.24695 -158.66698 4.5498209 0
-275.36093 -157.25676 4.585134 0
-263.44131 -156.21556 4.5262785 0
-296.28818 -153.71169 4.5461788 0
-284.85272 -153.69194 4.5878587 0
-270.14441 -153.54977 4.5605235 0
-263.85565 -153.48091 4.555182 0
-264.47159 -153.19058 4.5287204 0
-282.7056 -152.39174 4.5766115 0
-283.6333 -152.20557 4.5412855 0
-283.15652 -152.26031 4.5216365 0
-283.12589 -152.15025 4.563694 0
-283.00351 -152.19095 4.5183325 0
-296.32196 -151.70892 4.5971193 0
-304.94022 -151.28841 4.5246754 0
-280.75677 -151.24925 4.5803323 0
-280.62027 -151.03903 4.5220203 0
-286.19968 -150.81064 4.571599 0
-286.12164 -150.79623 4.535388 0
-259.49762 -150.63312 4.5729408 0
-260.49643 -150.5607 4.5832934 0
-260.37381 -150.51266 4.5325909 0
-277.38492 -150.30267 4.5087323 0
-276.31049 -150.22086 4.5953593 0
-276.08154 -150.23073 4.5115476 0
-277.65103 -150.10591 4.527216 0
-260.98944 -164.50522 4.6630688 0
-261.48419 -163.3499 4.6423526 0
-253.26961 -161.28194 4.64996 0
-273.61237 -160.86171 4.6826291 0
-264.48373 -160.81911 4.6553288 0
-252.43001 -160.41466 4.6438837 0
-272.75861 -160.29301 4.6212697 0
-266.16165 -160.2782 4.618886 0
-272.3222 -160.15492 4.6836514 0
-272.29749 -160.12367 4.6236172 0
-252.2901 -159.87463 4.6671381 0
-276.21548 -159.53352 4.6900468 0
-276.08658 -159.51862 4.6790752 0
-267.24356 -159.43381 4.6902919 0
-260.10632 -159.25851 4.6772065 0
-274.87186 -158.06328 4.6849885 0
-275.15305 -157.60313 4.6450281 0
-275.45911 -157.08904 4.6205115 0
-296.80826 -153.91928 4.6421418 0
-262.96005 -153.68935 4.6834359 0
-282.90097 -152.90718 4.6925654 0
-282.75488 -152.40643 4.6817513 0
-283.47235 -152.2382 4.6745543 0
-283.14624 -152.20323 4.6061649 0
-283.65808 -152.14227 4.6049228 0
-281.10992 -151.38364 4.6936073 0
-280.2774 -151.16635 4.6671934 0
-280.43967 -151.02443 4.6190972 0
-296.23459 -150.83562 4.6537499 0
-286.22372 -150.76994 4.6949925 0
-278.68698 -150.50926 4.67659 0
-260.40347 -150.54102 4.6092591 0
-278.30942 -150.48572 4.6251884 0
-277.9772 -150.34227 4.6231666 0
-276.86014 -150.24724 4.6130385 0
-276.71939 -150.26178 4.6203442 0
-277.53735 -150.05702 4.6367488 0
-268.18338 -169.26859 4.7149673 0
-250.04994 -164.61197 4.7229123 0
-262.48941 -163.41882 4.7934937 0
-252.89685 -162.78639 4.7386193 0
-259.62531 -160.58723 4.7933378 0
-252.62885 -160.50453 4.7332134 0
-275.01413 -159.47252 4.7313914 0
-267.22055 -159.43146 4.7335529 0
-260.18951 -159.20856 4.771987 0
-276.83347 -159.14442 4.7774105 0
-256.85965 -158.25739 4.7132893 0
-262.689 -153.70326 4.7181787 0
-262.84445 -153.66118 4.7331219 0
-262.81915 -153.58884 4.7863779 0
-283.03046 -152.16103 4.7452607 0
-304.93985 -151.25577 4.7351022 0
-275.94635 -150.84175 4.7788782 0
-259.83881 -150.63885 4.7378225 0
-278.53867 -150.12263 4.7405415 0
-277.23669 -150.00742 4.7485771 0
-267.89172 -169.5224 4.8194237 0
-250.18402 -163.60753 4.8526216 0
-273.77072 -160.80255 4.8074665 0
-252.40034 -159.85164 4.8255682 0
-252.258 -159.8575 4.8669214 0
-252.14478 -159.80173 4.8876495 0
-276.85709 -159.11192 4.8624091 0
-256.90524 -158.30576 4.8187871 0
-256.80112 -158.31447 4.8854723 0
-267.53839 -157.37802 4.8350887 0
-267.72461 -157.05159 4.8271589 0
-263.61633 -156.17903 4.870461 0
-259.54852 -154.90424 4.8295703 0
-295.54675 -153.7552 4.8912883 0
-298.94925 -152.36623 4.8824682 0
-283.25992 -152.26012 4.8047519 0
-282.98553 -152.24968 4.8007488 0
-299.45047 -152.03928 4.8420811 0
-267.95621 -152.04451 4.8419418 0
-285.94131 -151.97025 4.8499217 0
-281.53687 -151.45651 4.8773642 0
-281.44812 -151.46506 4.822947 0
-259.93027 -151.22313 4.8214722 0
-280.39532 -151.07191 4.8437676 0
-280.26071 -151.05025 4.8924088 0
-276.16144 -150.68228 4.8479557 0
-260.32153 -150.45819 4.8397708 0
-261.64838 -163.24843 4.9367261 0
-282.84369 -163.03577 4.9236155 0
-253.40031 -161.27782 4.932507 0
-253.1171 -161.18909 4.990046 0
-252.22458 -159.79439 4.915947 0
-267.147 -159.50372 4.9835491 0
-277.4274 -159.39493 4.9511642 0
-275.15167 -159.24274 4.9539561 0
-268.33228 -158.74294 4.9264894 0
-263.43869 -156.20479 4.9648256 0
-262.9585 -153.64624 4.9167514 0
-262.6824 -153.65846 4.9151082 0
-262.72134 -153.54202 4.9566097 0
-277.00262 -152.21753 4.9178691 0
-259.63776 -151.58752 4.997488 0
-281.53653 -151.38722 4.9086285 0
-259.79733 -151.302 4.9113646 0
-305.00967 -151.27977 4.9283419 0
-281.14932 -151.2748 4.907917 0
-280.52588 -151.14464 4.9444318 0
-280.58676 -151.07652 4.9934449 0
-274.67502 -150.99998 4.9561524 0
-276.1282 -150.79126 4.9220848 0
-275.85532 -150.78604 4.9130216 0
-260.27826 -150.51538 4.902987 0
-260.19281 -150.39653 4.9980493 0
-256.5304 -150.04221 4.9815831 0
-251.50404 -164.24525 5.0161977 0
-272.83154 -163.40204 5.0726795 0
-252.54335 -160.47034 5.0408521 0
-272.68469 -160.00531 5.0562296 0
-263.67871 -159.77762 5.0763535 0
-252.14305 -159.7742 5.068131 0
-276.09448 -159.62625 5.0922723 0
-277.40253 -159.41286 5.0806856 0
-264.84692 -159.06042 5.0859399 0
-282.80658 -155.20839 5.0903411 0
-262.89453 -153.64972 5.0101781 0
-281.80856 -153.53548 5.0840635 0
-262.86768 -153.55148 5.0879073 0
-283.33109 -152.20667 5.0534039 0
-283.13147 -152.15459 5.0501137 0
-268.01401 -152.05305 5.0643511 0
-280.24838 -151.25146 5.0050406 0
-280.53168 -151.12057 5.0243435 0
-280.31674 -151.11728 5.0466199 0
-280.23056 -151.13559 5.0990562 0
-280.37723 -151.07169 5.0041995 0
-275.12073 -150.93665 5.0933495 0
-274.94754 -150.89534 5.0390186 0
-285.37897 -150.78922 5.0157304 0
-256.51947 -150.69353 5.0525961 0
-268.73425 -150.56071 5.0430889 0
-260.36792 -150.453 5.0434079 0
-260.29614 -150.41948 5.0783706 0
-282.62238 -164.02541 5.1639628 0
-252.36075 -160.5007 5.1957669 0
-272.55347 -160.04739 5.133707 0
-267.25601 -159.61163 5.1915064 0
-277.66837 -159.54707 5.1329842 0
-275.21295 -159.41228 5.1886687 0
-260.03851 -159.2502 5.1610641 0
-275.72284 -155.28218 5.1877484 0
-276.33636 -154.72 5.1011114 0
-281.68945 -153.74709 5.1391358 0
-262.60641 -153.72513 5.13204 0
-262.70566 -153.60913 5.1126647 0
-262.63727 -153.61708 5.1062737 0
-262.75867 -153.59641 5.1105623 0
-283.33252 -152.20395 5.1747169 0
-283.37799 -152.1736 5.1481895 0
-283.19727 -152.19859 5.1346974 0
-282.99146 -151.41307 5.1890545 0
-282.42554 -151.46149 5.1511402 0
-282.39624 -151.41806 5.1930246 0
-282.94977 -151.35056 5.1985321 0
-282.80975 -151.35338 5.156599 0
-280.16864 -151.2653 5.1980815 0
-280.6651 -151.16704 5.1877732 0
-275.27347 -150.77954 5.1290827 0
-286.39044 -150.48618 5.1800537 0
-276.67209 -150.37422 5.1945515 0
-276.81595 -150.25061 5.1191812 0
-277.56662 -150.16783 5.1625957 0
-276.98215 -150.12602 5.1428938 0
-276.09653 -169.3586 5.2580466 0
-277.53226 -165.49492 5.2096605 0
-269.97668 -161.5522 5.2944613 0
-253.34152 -161.30862 5.2694921 0
-253.2166 -161.18085 5.2374196 0
-259.30765 -160.92528 5.2582264 0
-273.79019 -160.81813 5.2478762 0
-265.88373 -160.30794 5.2481885 0
-254.31599 -159.55299 5.2415147 0
-278.26773 -157.87473 5.2761011 0
-274.89886 -157.7641 5.2268062 0
-267.54697 -157.41394 5.2182889 0
-304.89594 -157.05017 5.2477169 0
-297.00613 -156.31483 5.237586 0
-259.4491 -154.77715 5.2043848 0
-262.93005 -153.72852 5.2621441 0
-262.9082 -153.65045 5.2469049 0
-270.72717 -153.51947 5.2913017 0
-270.28485 -153.51619 5.2832522 0
-262.83319 -153.50848 5.2271342 0
-282.53839 -153.3571 5.2885475 0
-299.22394 -152.64153 5.200026 0
-283.3866 -152.21254 5.2415004 0
-283.18427 -152.2093 5.27106 0
-283.37003 -152.17554 5.21521 0
-283.27911 -152.1205 5.2507915 0
-305.73593 -152.07477 5.2224422 0
-268.04166 -151.96172 5.2812495 0
-261.07013 -151.31638 5.2727928 0
-256.10788 -151.15274 5.2338343 0
-280.56238 -151.03979 5.2500134 0
-280.41467 -151.06219 5.2428961 0
-256.43436 -150.67075 5.2807264 0
-256.3822 -150.65256 5.289031 0
-286.44388 -150.46587 5.2612882 0
-260.11465 -150.44101 5.208858 0
-272.55283 -163.3844 5.3877401 0
-252.96162 -161.0752 5.3467407 0
-273.80173 -160.74457 5.3672338 0
-273.45184 -160.79701 5.3170309 0
-273.73218 -160.61304 5.3584471 0
-252.09013 -160.02701 5.3838439 0
-252.06554 -159.69757 5.344687 0
-277.53064 -159.57785 5.3557982 0
-277.52914 -159.43849 5.3611484 0
-277.40335 -159.4859 5.3432708 0
-275.01282 -159.12964 5.3683887 0
-265.68701 -158.29193 5.351428 0
-278.66351 -157.48679 5.3689628 0
-297.40601 -156.6149 5.3942561 0
-275.69043 -155.2576 5.3624878 0
-259.52258 -154.82207 5.3628564 0
-281.56165 -154.04448 5.311182 0
-284.80743 -153.8573 5.3791313 0
-262.57068 -153.65736 5.3867383 0
-282.45056 -153.40994 5.3010206 0
-287.19815 -153.10597 5.3936033 0
-283.40219 -152.07846 5.3810582 0
-283.31387 -152.091 5.3925838 0
-304.91888 -151.40334 5.3496947 0
-304.8985 -151.41656 5.3301363 0
-280.22906 -151.35838 5.3081989 0
-280.63138 -151.10753 5.3126283 0
-280.17462 -151.13376 5.3917408 0
-280.67105 -151.05515 5.3920708 0
-280.24902 -151.0937 5.346859 0
-286.49487 -150.60831 5.3863134 0
-267.67221 -169.18025 5.4628563 0
-276.09579 -159.6104 5.4960575 0
-277.64923 -159.50545 5.449245 0
-251.87273 -159.53247 5.4209766 0
-256.48267 -158.19995 5.4392667 0
-267.70789 -157.50478 5.41327 0
-267.44763 -157.36491 5.470264 0
-263.67609 -156.41893 5.4862375 0
-283.26883 -154.55824 5.4916987 0
-283.00647 -154.37012 5.4234009 0
-285.36777 -154.21237 5.4100704 0
-284.82959 -153.67419 5.480557 0
-262.81589 -153.5038 5.4682164 0
-283.43234 -152.08192 5.4834418 0
-268.14529 -152.07794 5.4318795 0
-268.20023 -151.9655 5.4861684 0
-280.54999 -151.1163 5.4242067 0
-280.67047 -151.04858 5.425045 0
-280.17969 -151.08304 5.4130869 0
-303.50455 -150.52847 5.445641 0
-260.27783 -150.38785 5.4478111 0
-259.87817 -150.0659 5.4686375 0
-281.95752 -163.58934 5.5615788 0
-276.17307 -159.56123 5.5172901 0
-251.90886 -159.48518 5.5845523 0
-268.371 -158.66696 5.5977898 0
-267.51654 -157.36641 5.5908632 0
-267.3912 -157.3419 5.5946517 0
-262.82404 -153.51065 5.5997419 0
-270.37869 -153.43356 5.5775037 0
-283.2106 -152.50871 5.5303569 0
-298.72348 -152.26968 5.5458689 0
-287.0054 -152.25069 5.5034523 0
-283.48083 -152.12732 5.5719528 0
-283.50177 -152.06973 5.5012827 0
-283.38611 -152.07297 5.5642877 0
-282.38199 -151.54797 5.5925531 0
-275.92667 -151.21408 5.5893984 0
-275.87469 -151.24146 5.5890322 0
-280.11661 -151.18376 5.5397801 0
-280.78656 -151.03282 5.5344009 0
-281.02652 -150.94304 5.585402 0
-286.36136 -150.38922 5.5717282 0
-260.25638 -150.30057 5.5821791 0
-282.38052 -163.93327 5.6103067 0
-282.48865 -163.73807 5.6037307 0
-252.85934 -160.93607 5.6971827 0
-273.38574 -160.80984 5.6629419 0
-252.36638 -160.48274 5.6992168 0
-254.36304 -159.84587 5.6158795 0
-277.57437 -159.44669 5.6779227 0
-305.83145 -158.10504 5.6051116 0
-251.95636 -156.3423 5.6853132 0
-259.77051 -154.76772 5.6060147 0
-262.95728 -153.64156 5.6223278 0
-262.87482 -153.54843 5.6140318 0
-283.44952 -152.02066 5.604959 0
-268.19144 -152.01135 5.6205144 0
-280.39648 -151.16841 5.679235 0
-282.05649 -151.00909 5.6496234 0
-280.2789 -151.07724 5.6284871 0
-280.8353 -150.96867 5.6715045 0
-286.45987 -150.84959 5.6924796 0
-310.89246 -150.52942 5.6902294 0
-286.35013 -150.48969 5.6487718 0
-260.20459 -150.30695 5.6520634 0
-260.16904 -150.39067 5.6603079 0
-310.94519 -150.23343 5.609642 0
-253.61827 -166.72267 5.7230506 0
-265.7872 -158.43129 5.7990227 0
-275.03055 -156.91742 5.7823477 0
-285.05341 -153.51906 5.7533531 0
-282.5383 -153.50426 5.7322984 0
-270.51947 -153.36034 5.7894287 0
-262.70477 -153.33533 5.7584939 0
-283.57266 -152.0029 5.7880116 0
-268.24359 -151.98277 5.7960057 0
-280.26819 -151.0773 5.7168431 0
-281.08832 -150.87125 5.7851367 0
-280.97394 -150.88934 5.7727323 0
-260.29773 -150.35298 5.7112989 0
-258.46942 -163.08316 5.8771749 0
-252.84439 -160.83031 5.8802829 0
-252.86533 -160.78806 5.8979936 0
-267.09995 -159.60527 5.8472109 0
-277.55017 -159.52116 5.8054223 0
-276.04242 -159.54155 5.8159704 0
-256.22635 -158.08783 5.8831091 0
-297.88937 -156.52026 5.8390417 0
-263.6936 -156.50774 5.8682065 0
-262.95782 -153.51706 5.8832893 0
-262.84149 -153.42137 5.8631911 0
-283.67545 -152.00497 5.8852963 0
-268.32651 -152.02637 5.8560958 0
-280.38217 -151.14557 5.8941917 0
-280.20419 -151.10741 5.8503165 0
-280.28342 -151.04675 5.8138866 0
-280.14169 -151.04445 5.8405137 0
-287.84659 -150.96562 5.8412662 0
-281.11038 -150.8625 5.8573184 0
-280.96902 -150.86107 5.8130021 0
-260.33286 -150.30621 5.8998275 0
-260.25253 -150.34024 5.8087311 0
-260.3194 -150.28889 5.8852072 0
-260.20602 -150.28175 5.8131089 0
-253.42592 -161.47078 5.9185901 0
-252.75066 -160.72166 5.9771571 0
-252.66568 -160.7401 5.9864125 0
-276.21616 -159.52148 5.9957237 0
-262.16397 -159.2077 5.9660726 0
