# .PCD v0.7 - Point Cloud Data file format
VERSION 0.7
FIELDS x y z intensity
SIZE 4 4 4 4
TYPE F F F F
COUNT 1 1 1 1
WIDTH 479
HEIGHT 1
VIEWPOINT 0 0 0 1 0 0 0
POINTS 479
DATA ascii
-347.48807 50.212059 -5.5407615 0
-343.31363 50.197575 -5.4905429 0
-348.16638 50.747559 -5.4770913 0
-346.6246 51.857738 -5.473876 0
-349.37241 52.494122 -5.4874172 0
-342.85745 52.446621 -5.4593663 0
-342.87659 52.587181 -5.465261 0
-349.15601 52.650612 -5.4852681 0
-346.20041 52.635422 -5.4568777 0
-340.70819 53.470398 -5.4212499 0
-346.87036 53.525909 -5.4359612 0
-345.56427 53.574436 -5.4277201 0
-346.28284 53.832851 -5.4260464 0
-348.84229 55.152771 -5.442821 0
-348.71188 55.137089 -5.4394841 0
-348.20963 56.925301 -5.4013953 0
-349.01111 57.659946 -5.4288611 0
-348.99423 57.874416 -5.4326949 0
-339.84482 51.928329 -5.3574781 0
-340.83786 52.367996 -5.3368778 0
-342.53427 52.817425 -5.3514795 0
-338.83365 53.12035 -5.371356 0
-339.94461 54.050117 -5.3115892 0
-348.2287 54.355167 -5.3457408 0
-348.13351 54.410328 -5.341578 0
-347.98981 54.682331 -5.3317542 0
-346.35181 54.789978 -5.3765707 0
-347.7944 55.249958 -5.3237834 0
-347.67526 55.354881 -5.3198056 0
-347.5929 55.318783 -5.3133259 0
-347.45535 55.544979 -5.3073311 0
-347.35782 55.535229 -5.3007898 0
-347.4559 55.947193 -5.3699555 0
-335.14447 55.967861 -5.3768787 0
-345.85535 56.123001 -5.3465281 0
-332.49503 56.398266 -5.3778706 0
-330.44659 56.528126 -5.3836565 0
-330.67798 56.947788 -5.3268008 0
-330.34814 56.996387 -5.3051276 0
-334.32266 57.143147 -5.3351469 0
-332.02655 59.251045 -5.3287201 0
-349.51419 59.630726 -5.3700728 0
-347.48245 60.944771 -5.3570714 0
-344.10788 51.067829 -5.2653785 0
-346.5885 51.667633 -5.2202148 0
-344.17554 53.167435 -5.2663441 0
-343.83218 53.806198 -5.2742367 0
-340.5751 53.818588 -5.2668028 0
-324.65067 54.360714 -5.2146454 0
-340.99579 54.670345 -5.2387495 0
-341.4306 55.427681 -5.2054973 0
-347.2565 55.636192 -5.2927985 0
-336.90994 56.081692 -5.2768016 0
-341.91238 56.737869 -5.2702107 0
-338.96048 56.958595 -5.2222176 0
-338.86099 56.942013 -5.2250528 0
-339.33539 57.091213 -5.2120523 0
-339.00943 57.085812 -5.2217121 0
-338.70859 57.02512 -5.2252116 0
-339.42407 57.167019 -5.2099628 0
-338.54575 57.146847 -5.2259598 0
-336.2529 57.16806 -5.2744241 0
-338.37692 57.272057 -5.2319183 0
-336.04437 57.256638 -5.2762823 0
-329.81363 57.229485 -5.2769337 0
-339.12811 57.320053 -5.21492 0
-339.00061 57.368473 -5.2140689 0
-337.42593 57.366856 -5.2459416 0
-337.32904 57.340595 -5.2486281 0
-337.20206 57.368336 -5.2526169 0
-336.75974 57.331394 -5.2605209 0
-336.53625 57.312248 -5.2670422 0
-336.41785 57.326832 -5.2656717 0
-338.194 57.429783 -5.2335339 0
-337.82419 57.490253 -5.2399979 0
-337.71582 57.486862 -5.2381945 0
-337.50104 57.454559 -5.2443523 0
-337.05484 57.432117 -5.2524767 0
-336.84488 57.401104 -5.2584963 0
-336.59467 57.442131 -5.2612548 0
-329.16949 57.450424 -5.242456 0
-339.47125 57.589142 -5.201685 0
-339.37552 57.501076 -5.2039061 0
-338.01627 57.568199 -5.2348542 0
-337.90829 57.544197 -5.2328963 0
-337.58493 57.529087 -5.2424045 0
-336.89902 57.509033 -5.2576938 0
-330.51886 57.736298 -5.2995267 0
-333.44519 57.961647 -5.2735238 0
-328.51456 57.939934 -5.2090521 0
-332.31604 58.061863 -5.2606902 0
-337.77219 58.332073 -5.2018085 0
-329.46747 58.582684 -5.2042928 0
-337.67551 58.656723 -5.2029052 0
-337.936 58.70322 -5.2122974 0
-337.78989 58.703053 -5.2057986 0
-347.03143 59.231445 -5.2866154 0
-344.98682 59.623367 -5.2351379 0
-346.06839 60.301926 -5.2836218 0
-323.90604 50.917625 -5.1020212 0
-342.9827 53.901993 -5.1798773 0
-325.5314 55.708981 -5.1878285 0
-327.09619 56.341068 -5.1810832 0
-324.64136 56.482006 -5.1896296 0
-342.6579 56.822838 -5.1349277 0
-344.5607 58.056267 -5.1392388 0
-344.72336 58.191807 -5.1492324 0
-344.63986 58.144592 -5.1422968 0
-337.83594 58.239147 -5.127121 0
-327.66721 58.230812 -5.1262636 0
-337.66412 58.751255 -5.1422591 0
-337.26395 58.856506 -5.1961746 0
-337.0119 58.997791 -5.1938643 0
-333.38254 59.367722 -5.1672707 0
-331.2963 62.916077 -5.1314983 0
-346.69547 51.270721 -5.0930381 0
-345.2261 51.269646 -5.0243134 0
-346.57489 51.51141 -5.0947747 0
-343.85391 51.652878 -5.0096149 0
-322.7709 53.456108 -5.0826368 0
-333.36884 59.298801 -5.0116677 0
-330.99817 60.546677 -5.0120816 0
-328.57388 61.150532 -5.0305166 0
-325.49814 62.251175 -5.0520873 0
-342.0155 62.316868 -5.0640821 0
-332.62784 63.68755 -5.0127096 0
-345.77075 50.658642 -4.9985867 0
-342.79352 55.164333 -4.9237609 0
-322.53928 61.102516 -4.9080567 0
-323.25418 61.678547 -4.9779572 0
-323.4505 62.101982 -4.9916568 0
-346.03848 71.488167 -4.9735918 0
-321.34485 57.366344 -4.8840165 0
-321.26093 57.308815 -4.8990817 0
-321.42651 57.448765 -4.8683305 0
-322.70386 61.496605 -4.8905921 0
-332.13501 64.971939 -4.887012 0
-337.93869 65.106712 -4.8624897 0
-340.74194 66.053101 -4.849875 0
-341.75037 68.693642 -4.8167462 0
-345.93982 72.403053 -4.8127155 0
-345.80179 72.624901 -4.8334341 0
-333.30032 59.311962 -4.7170591 0
-343.25098 53.070694 -4.6578188 0
-344.58096 53.798462 -4.6178961 0
-342.85052 56.11982 -4.6845336 0
-321.77747 58.258068 -4.686677 0
-307.70081 63.491566 -4.6317239 0
-338.91428 68.439812 -4.6922421 0
-338.78067 68.418495 -4.6872129 0
-332.21344 69.593224 -4.6554785 0
-342.21365 58.493038 -4.5047979 0
-342.42957 58.735062 -4.5332136 0
-339.11398 63.239223 -4.5082035 0
-334.46375 68.635651 -4.5476661 0
-344.49905 51.819717 -4.4787354 0
-340.44568 63.963905 -4.4405451 0
-335.69174 68.590904 -4.4454021 0
-332.8067 68.921753 -4.4270673 0
-334.47397 69.466797 -4.4375916 0
-336.18497 70.801025 -4.4013562 0
-338.44016 71.162384 -4.4972692 0
-335.96985 73.014877 -4.4129744 0
-304.96582 51.656128 -4.3624916 0
-321.5882 58.335289 -4.335362 0
-334.14105 68.572525 -4.3902273 0
-334.02615 68.504021 -4.3884735 0
-334.39691 68.628632 -4.3931713 0
-334.2388 68.661774 -4.3920393 0
-337.07986 70.483177 -4.3529873 0
-336.32932 70.81852 -4.3889031 0
-336.21799 71.189873 -4.3954844 0
-346.48633 72.751122 -4.368062 0
-343.26801 55.87439 -4.2796617 0
-304.9407 56.298092 -4.2475381 0
-343.6489 56.470127 -4.277142 0
-304.9119 56.500572 -4.2549186 0
-304.9715 56.685383 -4.257606 0
-321.59366 58.354568 -4.2205696 0
-333.39853 59.378281 -4.2723103 0
-310.40027 64.039528 -4.2843242 0
-315.7085 65.457428 -4.2457519 0
-346.57657 72.85202 -4.2014279 0
-305.06558 50.219501 -4.1710539 0
-305.00735 52.094925 -4.1431727 0
-304.98361 52.29829 -4.1456728 0
-305.00854 52.478027 -4.1528106 0
-304.9975 52.662994 -4.1547403 0
-305.01065 52.778347 -4.1760497 0
-312.96515 53.38472 -4.1093478 0
-312.88156 53.342003 -4.1717558 0
-343.06174 53.85038 -4.1966944 0
-304.78543 60.202076 -4.1590219 0
-340.92587 62.049026 -4.1432076 0
-335.44336 69.110779 -4.141655 0
-346.27905 72.624336 -4.1848845 0
-346.08585 72.728462 -4.1787333 0
-305.01337 50.343246 -4.0694094 0
-304.94507 50.555794 -4.0203524 0
-345.69373 50.727455 -4.0824037 0
-343.92197 51.917675 -4.0856013 0
-313.07547 53.28344 -4.0551982 0
-313.13553 53.371052 -4.0262675 0
-313.0036 53.323055 -4.0192895 0
-305.05161 53.518932 -4.0248203 0
-305.03256 53.734127 -4.0281353 0
-305.01187 53.903351 -4.0256066 0
-305.03629 54.075695 -4.0285978 0
-305.02362 54.256561 -4.0263586 0
-305.00726 54.457005 -4.0294323 0
-305.03445 54.614693 -4.0271854 0
-305.00647 54.823158 -4.0302811 0
-305.02875 54.979946 -4.0279679 0
-305.01733 55.181286 -4.0311041 0
-304.99213 55.375092 -4.0289612 0
-305.0018 55.544739 -4.0317373 0
-305.00208 55.738148 -4.0298476 0
-305.03232 55.906479 -4.0328188 0
-304.98294 56.121258 -4.0307965 0
-304.99841 56.286884 -4.033565 0
-342.7822 56.302658 -4.0828328 0
-304.98526 56.498154 -4.0318518 0
-305.00974 56.670589 -4.0298319 0
-304.97687 56.878159 -4.0328474 0
-304.96732 57.069759 -4.0308166 0
-304.98413 57.255951 -4.0339618 0
-304.96875 57.451569 -4.03194 0
-304.99811 57.624817 -4.0349822 0
-304.96075 57.857059 -4.0333776 0
-304.94592 58.02227 -4.0308146 0
-304.95547 58.247803 -4.0345826 0
-304.96252 58.432281 -4.0325885 0
-304.94037 58.636738 -4.0356488 0
-304.9483 58.816299 -4.0335746 0
-304.94098 59.023556 -4.0318351 0
-304.96179 59.215572 -4.0351181 0
-304.9162 61.247135 -4.0372043 0
-346.51443 72.831093 -4.0650196 0
-305.09589 50.117241 -3.9465547 0
-305.01532 52.059479 -3.9924808 0
-343.90298 52.389572 -3.9423239 0
-304.88678 52.447987 -3.9672842 0
-304.94659 53.412441 -3.9908371 0
-343.31476 56.708923 -3.9620893 0
-343.08701 57.500603 -3.9985716 0
-307.25027 63.456566 -3.9573522 0
-304.6965 64.508492 -3.9783576 0
-304.6983 65.055183 -3.9434481 0
-304.91714 50.207417 -3.805526 0
-305.0498 52.866451 -3.8164322 0
-304.92892 54.388802 -3.8314719 0
-342.80377 55.441013 -3.8982403 0
-308.25079 63.312283 -3.874563 0
-304.8981 51.274948 -3.7385964 0
-304.9563 52.916687 -3.7884166 0
-304.93375 53.320137 -3.741111 0
-304.94 53.696255 -3.7006087 0
-305.01523 54.628529 -3.7301276 0
-342.32111 57.826488 -3.7139058 0
-304.78476 57.954857 -3.7712536 0
-304.78058 58.148148 -3.7683702 0
-304.78574 58.328701 -3.7654562 0
-304.81143 58.510601 -3.7677543 0
-304.75562 58.766037 -3.7649698 0
-304.7608 58.94659 -3.7620564 0
-304.73669 60.364262 -3.7575448 0
-306.63019 61.165947 -3.7101452 0
-336.8732 73.396049 -3.7373254 0
-337.34613 80.953903 -3.7972097 0
-321.29208 51.561024 -3.6566904 0
-306.82275 51.853748 -3.6043518 0
-304.88837 52.006477 -3.6926804 0
-304.98242 53.019157 -3.6517885 0
-306.72998 51.057339 -3.5131369 0
-312.96701 53.364475 -3.5847976 0
-306.65121 53.31741 -3.5754459 0
-321.68958 58.456264 -3.5604022 0
-342.0538 59.467667 -3.597657 0
-336.82202 74.556572 -3.5348065 0
-306.87317 51.431778 -3.4788918 0
-312.84091 53.367027 -3.4528205 0
-306.76132 54.413136 -3.4792776 0
-306.67194 57.863766 -3.4993987 0
-321.75668 58.405811 -3.4096603 0
-306.74344 60.107723 -3.4513197 0
-337.45047 80.149521 -3.4935665 0
-306.60196 56.173088 -3.3967049 0
-306.61102 56.807602 -3.3566566 0
-315.70895 65.378113 -3.3576317 0
-338.36115 72.379761 -3.3594236 0
-346.11505 72.736877 -3.3304913 0
-306.80554 52.226124 -3.2360497 0
-306.79095 55.123627 -3.2097833 0
-306.72086 55.482002 -3.2992754 0
-333.8176 59.349667 -3.2306209 0
-313.09906 53.402943 -3.149442 0
-306.46609 56.380989 -3.1384413 0
-321.64178 58.265575 -3.1583927 0
-306.49734 59.847183 -3.168334 0
-315.65012 65.329727 -3.1616387 0
-315.75751 65.409897 -3.1490686 0
-315.82257 65.561218 -3.1316056 0
-338.95273 69.409241 -3.1634932 0
-337.93735 79.590347 -3.1209774 0
-313.20621 53.475552 -3.0536649 0
-313.26721 53.583134 -3.0422683 0
-306.76367 55.000187 -3.0631194 0
-306.53473 57.262379 -3.0284536 0
-313.17215 53.440414 -2.9887719 0
-313.05728 53.441189 -2.9962368 0
-312.92523 53.46653 -2.9984496 0
-313.25739 53.510109 -2.9793882 0
-306.82205 55.007492 -2.9313357 0
-306.79416 56.525902 -2.9666588 0
-306.71069 57.336666 -2.9190481 0
-321.47995 58.212769 -2.9720051 0
-306.73111 58.215012 -2.9809701 0
-321.63397 58.412601 -2.9917161 0
-306.72302 58.475052 -2.9623563 0
-306.64026 59.08815 -2.9048612 0
-312.90491 53.256756 -2.8837166 0
-313.00684 53.33416 -2.8842781 0
-306.79947 53.76273 -2.8720751 0
-306.70844 55.188084 -2.8284285 0
-306.69232 60.168072 -2.8372812 0
-306.6839 60.464115 -2.8167224 0
-306.82458 50.506145 -2.7138252 0
-306.8634 56.643085 -2.7840509 0
-306.89566 50.409035 -2.6408527 0
-306.80154 51.398712 -2.6168499 0
-321.31573 51.496311 -2.694829 0
-321.1181 58.123562 -2.6142702 0
-306.67502 59.64669 -2.6953607 0
-306.50119 61.495869 -2.6555262 0
-305.46445 69.085182 -2.6103244 0
-323.2915 51.091583 -2.5631478 0
-306.50912 56.296673 -2.5656066 0
-306.47754 57.306736 -2.5282645 0
-306.55295 58.224854 -2.5317333 0
-306.62973 59.803421 -2.5655382 0
-306.42941 62.333679 -2.5392141 0
-306.62408 62.605587 -2.5841236 0
-306.07623 69.167839 -2.5019484 0
-306.73239 52.532314 -2.4056244 0
-306.76639 52.751724 -2.4392054 0
-306.60284 62.434158 -2.4052112 0
-306.57068 62.841759 -2.4629421 0
-306.57266 63.755226 -2.4605927 0
-306.59833 64.95507 -2.4332249 0
-346.50803 89.943077 -2.4860229 0
-322.14548 50.595974 -2.3553572 0
-321.23801 51.457272 -2.3924332 0
-306.70898 52.763195 -2.3865631 0
-306.69937 53.33984 -2.3404195 0
-313.24261 53.656925 -2.3477876 0
-306.73096 59.189209 -2.3028481 0
-306.63141 60.436485 -2.3212733 0
-306.45013 61.462231 -2.3339236 0
-306.53006 61.623276 -2.3691385 0
-306.4086 62.329018 -2.3322589 0
-306.47418 62.485703 -2.3266168 0
-306.63541 64.928101 -2.3985808 0
-306.42322 66.569504 -2.365597 0
-306.35876 69.822647 -2.31778 0
-306.76328 53.897366 -2.2847977 0
-306.83051 54.226036 -2.2132466 0
-306.74203 58.974583 -2.2961636 0
-306.66861 59.221127 -2.2730293 0
-313.30316 53.271778 -2.1130004 0
-306.68716 57.428307 -2.1982911 0
-315.97763 65.722176 -2.1957307 0
-306.47485 69.26049 -2.1601319 0
-313.24545 53.137691 -2.0557647 0
-313.27472 53.575344 -2.0982344 0
-313.06332 53.532673 -2.0883508 0
-306.57642 62.845871 -2.0392077 0
-306.22824 69.168526 -2.0032542 0
-346.41522 72.68795 -2.0614607 0
-306.87656 50.712376 -1.9282418 0
-306.82678 50.176128 -1.8689418 0
-306.90137 50.419895 -1.8458472 0
-313.2717 53.580017 -1.8131791 0
-313.07239 53.51099 -1.810972 0
-306.55243 59.854767 -1.8088776 0
-305.51431 69.226646 -1.8006676 0
-306.90909 51.513916 -1.7906367 0
-306.3566 56.28989 -1.7284313 0
-306.40497 59.848972 -1.799531 0
-315.6362 65.0047 -1.773971 0
-315.51981 65.013954 -1.7787923 0
-306.55893 51.220066 -1.6780434 0
-313.16623 52.888493 -1.6701205 0
-313.44043 53.617867 -1.6787301 0
-306.73526 54.5765 -1.6727101 0
-306.44025 69.243187 -1.6951381 0
-306.65186 59.141499 -1.5701989 0
-306.78455 59.25856 -1.5840423 0
-348.2435 62.144619 -1.5333868 0
-306.88168 51.536831 -1.410449 0
-313.20697 53.855671 -1.4933546 0
-315.2085 70.273094 -1.4291408 0
-306.59836 59.353958 -1.3744757 0
-306.69354 60.69355 -1.3402404 0
-315.39001 70.414619 -1.3886098 0
-306.7196 51.334183 -1.2496449 0
-306.67325 54.051765 -1.2531387 0
-306.78918 55.280117 -1.2128824 0
-306.80252 55.465 -1.2087582 0
-306.5741 60.093788 -1.221014 0
-306.5011 61.534878 -1.2920861 0
-315.38895 64.911766 -1.2524632 0
-321.4993 51.014534 -1.1171707 0
-306.68137 55.285122 -1.1915529 0
-306.78802 55.665134 -1.198036 0
-306.43457 57.122669 -1.0617458 0
-306.57944 60.785942 -1.0670314 0
-306.57425 63.182701 -1.0121288 0
-306.31757 69.483742 -1.016009 0
-321.17908 58.066658 -0.97720724 0
-306.46451 58.915607 -0.96829373 0
-306.42517 61.535461 -0.93675822 0
-306.52438 62.654232 -0.93789208 0
-306.50839 62.933353 -0.91917044 0
-306.44852 69.269302 -0.91766566 0
-306.28821 69.263367 -0.90441018 0
-322.24902 53.004604 -0.86147839 0
-314.24393 53.41539 -0.89274931 0
-306.50156 63.759567 -0.86476523 0
-306.73889 63.812515 -0.86981398 0
-306.54053 64.00032 -0.89982396 0
-305.86002 69.304283 -0.80505103 0
-314.24698 53.317432 -0.77239162 0
-313.13168 53.478054 -0.797454 0
-321.67401 51.481472 -0.67645985 0
-306.43423 73.800026 -0.69363481 0
-306.49713 63.382446 -0.51517284 0
-306.63211 57.457111 -0.44050357 0
-306.06506 69.194656 -0.47522682 0
-305.71222 69.225838 -0.23225312 0
-306.59647 60.441982 -0.16241822 0
-349.11343 61.913776 -0.050304543 0
-306.60736 63.545155 0.19600199 0
-306.58344 57.946163 0.51750964 0
-306.51035 57.65987 0.82366568 0
-315.58542 52.350323 1.1709306 0
-322.27762 57.77494 1.1967126 0
-306.7825 52.274227 1.201766 0
-347.2868 64.149712 1.2468381 0
-313.77164 53.006607 1.3564053 0
-306.72458 55.480732 1.3003587 0
-348.98334 65.655762 1.3976042 0
-316.48624 52.714413 1.4403181 0
-313.47092 52.975826 1.4877851 0
-321.4328 58.461342 1.4397494 0
-313.63275 52.985825 1.7415104 0
-313.70465 53.015221 2.1343544 0
-313.6261 52.946125 2.2730432 0
-313.76163 53.067898 2.2468204 0
-306.70212 58.069572 2.2339323 0
-312.8436 53.801598 2.4583583 0
-321.58823 57.92564 2.4670427 0
-306.50241 60.024738 2.532681 0
-306.45923 60.258106 2.5555582 0
-321.37683 58.514065 2.607466 0
-347.60425 63.172066 2.8330593 0
-313.56522 52.678997 3.3566966 0
-345.93918 72.580063 3.3738537 0
-346.05646 72.431885 3.8397107 0
-314.07037 53.463066 3.9916427 0
-346.0705 72.355072 3.9437587 0
-345.4303 72.688637 4.2049341 0
-344.60718 71.750092 4.3461552 0
-312.9744 52.055683 4.4035163 0
-345.61356 72.630623 4.5284581 0
-345.57541 72.619659 5.0800352 0
-347.80585 64.965431 5.15238 0
-345.57507 72.658615 5.7434196 0
-348.44662 63.539295 6.0598011 0
-258.8634 55.94173 10.086827 0
