# .PCD v0.7 - Point Cloud Data file format
VERSION 0.7
FIELDS x y z intensity
SIZE 4 4 4 4
TYPE F F F F
COUNT 1 1 1 1
WIDTH 92
HEIGHT 1
VIEWPOINT 0 0 0 1 0 0 0
POINTS 92
DATA ascii
-356.32275 -51.511124 -8.4712133 0
-357.28531 -55.497955 -8.2493315 0
-360.94653 -54.246197 -8.2158976 0
-360.90652 -52.662891 -8.1646156 0
-360.82272 -51.89645 -8.1402006 0
-360.84961 -51.76432 -8.1360788 0
-360.78232 -51.368256 -8.1208916 0
-357.0018 -53.477528 -7.9647131 0
-359.37039 -69.860252 -7.8725128 0
-376.06104 -77.800652 -7.5661707 0
-358.4256 -60.686985 -7.5689087 0
-366.13174 -80.421089 -7.4717803 0
-357.63101 -58.656517 -7.3267765 0
-358.35916 -65.189247 -7.2905974 0
-357.5531 -59.967533 -7.2170639 0
-355.83023 -52.348652 -7.104918 0
-357.67917 -50.940392 -7.1584821 0
-357.40448 -50.743637 -7.1505337 0
-369.53253 -53.234917 -6.8357921 0
-367.18375 -50.638783 -6.4675961 0
-359.41476 -55.715 -6.3431239 0
-359.55023 -55.55975 -6.3446555 0
-359.68704 -55.725712 -6.2398553 0
-359.48602 -55.633114 -6.2891192 0
-359.69604 -55.450401 -6.2594285 0
-359.5784 -55.616718 -5.8661728 0
-359.38333 -55.645 -5.8614202 0
-359.74487 -55.521744 -5.8201137 0
-359.616 -55.574032 -5.8312149 0
-359.85818 -55.460438 -5.8098102 0
-359.75943 -55.422241 -5.8686857 0
-359.86469 -55.306938 -5.8040586 0
-367.0654 -50.870541 -4.8306103 0
-375.60541 -62.942184 -4.5779614 0
-449.58524 -51.442623 0.08254493 0
-444.83536 -51.560833 0.25466713 0
-418.71469 -52.028103 1.7082328 0
-430.91852 -52.022709 3.4970517 0
-441.20755 -51.825363 3.4878027 0
-449.69193 -51.708908 3.5192628 0
-446.78601 -51.717796 3.5832293 0
-444.91266 -51.796413 3.6491911 0
-444.97504 -51.667622 3.611697 0
-443.48334 -51.845459 3.7003667 0
-445.18109 -51.816101 3.9938235 0
-444.8804 -51.837704 3.9947135 0
-444.72961 -51.830902 3.9934237 0
-449.29037 -51.709995 3.9695191 0
-445.0098 -51.789577 3.9887829 0
-435.77911 -52.011005 4.0628462 0
-435.32397 -52.026066 4.0736265 0
-434.26382 -52.039288 4.0930376 0
-442.23172 -51.900425 4.0068383 0
-438.71008 -51.949089 4.0240688 0
-437.62515 -51.931675 4.035183 0
-437.09982 -51.981956 4.0743489 0
-436.95901 -51.970028 4.0780845 0
-436.39474 -51.957775 4.0514507 0
-435.61282 -51.977646 4.0472436 0
-447.56583 -51.834419 4.0043483 0
-445.43085 -51.804588 4.0504951 0
-445.17349 -51.814796 4.0139341 0
-443.46783 -51.809265 4.0031495 0
-442.392 -51.856766 4.0062175 0
-441.47186 -51.835613 4.0000715 0
-449.62149 -51.729202 4.0125875 0
-446.73489 -51.743309 4.0200891 0
-448.60648 -51.686085 4.0413203 0
-432.7973 -52.090435 4.1822138 0
-432.32913 -52.025051 4.1855702 0
-443.53262 -51.860455 4.1067338 0
-443.20825 -51.87294 4.118958 0
-443.05206 -51.858627 4.1229529 0
-431.61737 -52.071735 4.2801089 0
-439.60379 -51.92197 4.2381864 0
-438.53207 -51.971607 4.2848048 0
-438.06119 -51.964146 4.3007126 0
-436.36298 -51.992424 4.3773451 0
-435.90173 -51.979298 4.3929658 0
-434.52112 -52.10154 4.4741755 0
-435.42383 -52.007786 4.4180903 0
-435.39224 -51.996113 4.435668 0
-446.51401 -51.77589 4.5740533 0
-449.85196 -51.662857 4.5390763 0
-437.80072 -51.926544 4.7578874 0
-439.3414 -51.877304 4.710628 0
-434.1188 -52.00563 4.8856306 0
-435.81067 -51.979439 4.8220515 0
-443.16315 -51.859154 4.8035741 0
-448.44852 -51.725529 4.8012853 0
-441.22778 -51.866318 4.9432979 0
-371.56567 -55.505165 6.6904769 0
