# .PCD v0.7 - Point Cloud Data file format
VERSION 0.7
FIELDS x y z intensity
SIZE 4 4 4 4
TYPE F F F F
COUNT 1 1 1 1
WIDTH 1414
HEIGHT 1
VIEWPOINT 0 0 0 1 0 0 0
POINTS 1414
DATA ascii
-438.38165 69.221916 -1.7463369 0
-392.11124 69.756134 -1.7661198 0
-430.4021 70.235123 -1.7139047 0
-429.75995 70.369865 -1.733844 0
-442.68359 70.691521 -1.7548075 0
-428.62387 71.966713 -1.7612283 0
-399.9314 73.104927 -1.7502227 0
-398.86691 73.268326 -1.7657614 0
-389.67703 74.776108 -1.743609 0
-389.30856 74.90889 -1.7294564 0
-426.48361 50.090855 -1.6615541 0
-433.9892 50.237144 -1.6538032 0
-425.97061 50.226547 -1.6739974 0
-426.4006 50.344845 -1.6733514 0
-416.64096 51.007565 -1.6272264 0
-437.72638 51.15374 -1.6473075 0
-437.88919 51.249077 -1.6735152 0
-369.68661 52.092865 -1.625342 0
-393.46967 52.200066 -1.6929057 0
-438.45282 52.410526 -1.6809888 0
-389.59302 52.484894 -1.6194146 0
-442.71646 52.692688 -1.6049722 0
-442.83774 52.769405 -1.6972921 0
-390.19998 53.061481 -1.6202841 0
-373.01529 53.054546 -1.6914532 0
-372.94232 53.032749 -1.6802406 0
-372.90594 53.115524 -1.6906031 0
-372.81125 53.173153 -1.6895446 0
-372.73239 53.155792 -1.6936765 0
-429.1427 53.674377 -1.6085902 0
-433.87701 53.787334 -1.6568201 0
-440.55322 53.803047 -1.618642 0
-429.66708 54.15741 -1.6615484 0
-429.55331 54.135132 -1.6703058 0
-359.39774 55.062248 -1.6204818 0
-398.95847 55.534222 -1.6923429 0
-423.80695 55.705048 -1.6583124 0
-420.17615 55.832859 -1.6542426 0
-420.09918 55.921093 -1.6513805 0
-383.04504 55.917027 -1.669432 0
-387.73431 56.456604 -1.6903479 0
-396.27283 56.713551 -1.6540725 0
-414.51511 59.573681 -1.6037177 0
-414.41315 59.541618 -1.6092741 0
-398.63272 59.500027 -1.6864111 0
-414.53134 59.68055 -1.6637548 0
-414.03052 59.63763 -1.6503671 0
-430.58511 59.928719 -1.6438265 0
-401.98236 61.177391 -1.6842964 0
-447.98584 62.629341 -1.6773626 0
-402.12445 65.249496 -1.6421479 0
-448.61185 68.211639 -1.6181835 0
-448.388 68.307434 -1.622961 0
-441.54169 68.355568 -1.6827228 0
-435.98083 68.757103 -1.6568029 0
-435.71692 68.842232 -1.6686049 0
-434.20432 68.877457 -1.6623384 0
-436.1232 68.903374 -1.6815996 0
-436.00714 68.983429 -1.6696278 0
-434.64911 68.915382 -1.6441377 0
-434.57388 68.964256 -1.6152022 0
-436.198 69.078346 -1.6740348 0
-436.74744 69.206329 -1.6716402 0
-435.81476 69.292931 -1.639253 0
-436.30743 69.352303 -1.6601785 0
-432.95197 69.453499 -1.6079711 0
-439.57437 69.709038 -1.6611459 0
-439.99448 69.88343 -1.631093 0
-430.02896 70.68956 -1.6955736 0
-444.03418 70.935425 -1.6596129 0
-442.68018 71.387672 -1.6378831 0
-429.72781 71.374039 -1.6676344 0
-429.33221 71.827766 -1.6557046 0
-445.56824 72.725044 -1.6929221 0
-446.23962 74.177612 -1.6821982 0
-446.65311 74.653755 -1.670133 0
-446.67282 74.7155 -1.6701447 0
-448.28363 76.302658 -1.6317463 0
-386.46216 76.871872 -1.6553003 0
-421.30646 78.967117 -1.6958165 0
-418.4725 78.930161 -1.6339719 0
-418.57129 79.063889 -1.6302392 0
-426.49503 50.040993 -1.5816377 0
-434.19745 50.118431 -1.5730008 0
-426.75458 50.17767 -1.5448339 0
-426.40729 50.132519 -1.5260174 0
-441.3316 50.783154 -1.5478923 0
-416.7226 50.975136 -1.5681882 0
-416.64075 50.988899 -1.5809754 0
-366.68945 51.066368 -1.5408318 0
-369.72144 52.070641 -1.5401236 0
-369.54465 52.059696 -1.5782017 0
-389.54733 52.525333 -1.5391123 0
-389.35645 52.52235 -1.5480952 0
-409.97531 53.035275 -1.5824728 0
-373.08795 53.079651 -1.587132 0
-390.17664 53.141102 -1.5948261 0
-372.84821 53.109997 -1.5754979 0
-370.04648 53.726204 -1.5393062 0
-429.49084 54.080948 -1.5097795 0
-429.78854 54.199547 -1.5114549 0
-429.58246 54.109596 -1.5227013 0
-429.81415 54.362892 -1.5725489 0
-359.36746 55.019993 -1.5584213 0
-359.59888 55.516586 -1.5300088 0
-420.18576 55.951477 -1.5613681 0
-387.94861 56.362976 -1.5121218 0
-387.9549 56.444778 -1.5039072 0
-387.79114 56.481804 -1.5000957 0
-443.34076 58.236057 -1.5109608 0
-414.21118 59.377804 -1.5595601 0
-414.35974 59.445087 -1.557127 0
-414.0524 59.443066 -1.5236362 0
-402.07364 61.186466 -1.5647819 0
-384.06915 61.846821 -1.521911 0
-417.24658 61.997898 -1.5867987 0
-383.70328 61.903725 -1.501906 0
-431.18356 62.212181 -1.5650823 0
-353.17642 65.343697 -1.5492803 0
-448.61008 68.257507 -1.5233462 0
-441.69409 68.392242 -1.5299581 0
-433.92523 69.152405 -1.5643368 0
-404.42163 69.189369 -1.5865871 0
-404.31216 69.182671 -1.5779277 0
-435.35092 69.216072 -1.5701212 0
-433.91116 69.971352 -1.5341276 0
-442.45709 71.988556 -1.5141445 0
-398.50208 72.071617 -1.5853629 0
-428.59201 73.201126 -1.5790391 0
-445.0993 73.562523 -1.5935864 0
-444.67706 73.726524 -1.5087169 0
-447.19867 75.025139 -1.5202026 0
-387.35202 76.651321 -1.5881296 0
-419.30685 79.441681 -1.5736024 0
-426.44827 50.037594 -1.4047264 0
-434.2233 50.115574 -1.4268504 0
-426.73804 50.152878 -1.4082736 0
-426.45261 50.130402 -1.4715027 0
-447.68686 50.226212 -1.4215187 0
-426.38669 50.261658 -1.4980568 0
-426.39886 50.347942 -1.484861 0
-390.38788 51.97459 -1.4325689 0
-377.39117 51.977867 -1.4248011 0
-393.50949 52.192955 -1.4535799 0
-389.6507 52.407677 -1.4595996 0
-389.54242 52.436272 -1.4125192 0
-389.3414 52.554256 -1.4421012 0
-435.54977 53.066933 -1.4690188 0
-390.26324 53.075722 -1.4182808 0
-373.27145 53.25737 -1.4686871 0
-370.07111 53.599167 -1.4599758 0
-433.88727 53.701538 -1.4051186 0
-429.13278 53.722389 -1.4007599 0
-404.03635 53.816372 -1.4887229 0
-429.60419 54.101944 -1.4361633 0
-359.80493 55.522984 -1.4367104 0
-420.13873 55.945961 -1.4377989 0
-419.85892 56.031799 -1.4719499 0
-443.22876 58.26907 -1.4977895 0
-410.49939 58.426628 -1.4892855 0
-398.89862 59.310307 -1.4361094 0
-414.34775 59.421906 -1.4295216 0
-413.99289 59.517685 -1.4449235 0
-434.84274 60.338024 -1.4779276 0
-402.16937 61.170818 -1.4131546 0
-431.28043 62.198536 -1.4379104 0
-431.16895 62.198952 -1.4199778 0
-418.10928 65.007523 -1.4727366 0
-353.08646 65.340271 -1.4612231 0
-434.33813 69.810577 -1.4889766 0
-438.13718 69.976585 -1.4878689 0
-433.94202 69.986557 -1.4273514 0
-436.72632 70.048637 -1.482425 0
-438.8024 70.20163 -1.4877706 0
-437.13672 70.245491 -1.4337109 0
-432.85437 70.275764 -1.4474099 0
-439.87411 70.359016 -1.4798403 0
-431.30203 70.696327 -1.4823112 0
-431.22937 70.835403 -1.4725488 0
-432.09259 71.416054 -1.4123577 0
-430.08109 72.475212 -1.4049101 0
-424.04016 72.458504 -1.4459478 0
-429.41833 72.574844 -1.4086242 0
-377.60187 73.368469 -1.4405777 0
-445.46585 74.362122 -1.4804208 0
-427.85464 74.695396 -1.4993484 0
-388.06015 76.819916 -1.4401139 0
-387.95169 76.990494 -1.4270138 0
-373.30444 77.881897 -1.4009449 0
-421.90359 79.470764 -1.4929986 0
-426.68314 50.097393 -1.3418906 0
-426.513 50.021732 -1.3393118 0
-447.68613 50.204029 -1.3844358 0
-426.33517 50.367031 -1.3329755 0
-366.65356 50.979168 -1.3889936 0
-366.58124 51.077454 -1.3820105 0
-361.18536 51.041073 -1.3060927 0
-437.75269 51.138798 -1.3560381 0
-437.65628 51.114944 -1.3894274 0
-437.59119 51.132313 -1.3728145 0
-438.41467 52.468868 -1.307569 0
-389.521 52.46701 -1.3132989 0
-359.57828 52.576294 -1.375224 0
-373.14944 52.983353 -1.3316281 0
-390.25699 53.08099 -1.3551522 0
-373.04517 53.051392 -1.3156753 0
-435.54071 53.105629 -1.315724 0
-373.07385 53.123127 -1.3857296 0
-372.92932 53.107372 -1.3753006 0
-372.73917 53.120819 -1.3952701 0
-429.64059 54.090687 -1.3414799 0
-429.6434 54.105556 -1.3943917 0
-429.85999 54.218525 -1.3703519 0
-429.36133 54.381615 -1.3081652 0
-398.85513 55.462925 -1.3926288 0
-359.98468 55.428272 -1.3055646 0
-420.21182 55.868279 -1.3881401 0
-419.96921 55.938179 -1.3757075 0
-439.81097 57.023552 -1.3794347 0
-443.80743 58.349606 -1.3593849 0
-410.52011 58.449417 -1.3716042 0
-446.94189 59.183289 -1.3346096 0
-414.31448 59.311581 -1.3144214 0
-414.30542 59.433491 -1.3443626 0
-414.06836 59.45752 -1.3445294 0
-394.82407 60.366081 -1.397204 0
-383.88358 61.83506 -1.3899524 0
-423.96344 63.060783 -1.3180885 0
-417.95142 64.05072 -1.3089805 0
-402.42126 65.175018 -1.3691955 0
-388.18637 65.592957 -1.3649062 0
-376.14554 67.360992 -1.3885581 0
-375.91971 67.59951 -1.3257926 0
-410.58221 67.762032 -1.3697001 0
-404.43719 69.123886 -1.3556634 0
-433.17676 70.270119 -1.3940635 0
-438.72824 70.419884 -1.3898782 0
-438.50955 70.517525 -1.3833996 0
-438.39517 70.563911 -1.3801742 0
-438.28491 70.540283 -1.3795849 0
-433.05841 70.585274 -1.3875786 0
-432.65332 70.744308 -1.3878011 0
-440.68341 70.860207 -1.389462 0
-439.3244 70.939796 -1.3558826 0
-431.87247 71.396599 -1.3228265 0
-430.80179 71.993782 -1.3971322 0
-442.24979 72.236961 -1.3765476 0
-424.45105 72.532509 -1.3936456 0
-374.4725 73.91539 -1.3592077 0
-445.66809 75.198425 -1.3755816 0
-406.82632 75.891655 -1.3116165 0
-447.09515 76.854164 -1.3527602 0
-411.10074 77.147629 -1.3635062 0
-415.57321 79.307442 -1.3019885 0
-417.99539 79.857826 -1.3945858 0
-417.43808 79.826782 -1.3813409 0
-426.68646 50.045219 -1.2301977 0
-447.68445 50.28772 -1.2989956 0
-426.37888 50.246395 -1.2342311 0
-431.30737 50.534405 -1.2614404 0
-416.56738 50.969231 -1.272889 0
-366.42725 50.905807 -1.243246 0
-437.71857 51.13929 -1.2725554 0
-437.58118 51.241287 -1.2588687 0
-437.89563 51.353352 -1.2753862 0
-369.60461 52.098709 -1.2475402 0
-369.51382 52.044518 -1.2430357 0
-369.68509 52.1278 -1.2557167 0
-369.38147 52.183594 -1.2424467 0
-389.58426 52.463806 -1.2923387 0
-390.35831 53.140587 -1.2237771 0
-372.67752 53.140217 -1.2758825 0
-373.19382 53.201317 -1.2861904 0
-373.24359 53.30938 -1.2829792 0
-429.72607 54.114059 -1.2066679 0
-429.49982 54.105137 -1.2547674 0
-413.58112 54.570621 -1.2902889 0
-420.08624 55.893074 -1.2124941 0
-419.93466 55.984016 -1.2575817 0
-447.74103 56.032475 -1.2461588 0
-420.18698 56.03587 -1.2803512 0
-368.89615 56.198219 -1.2217804 0
-439.84723 56.997639 -1.2277726 0
-400.95782 58.024685 -1.2543786 0
-443.56586 58.133068 -1.2917433 0
-443.1846 58.541721 -1.2655931 0
-414.43631 59.525646 -1.2622755 0
-413.17883 61.194096 -1.2827926 0
-431.0369 62.297714 -1.2444438 0
-423.93753 63.040066 -1.2858398 0
-412.06573 63.591381 -1.215454 0
-435.47766 63.981983 -1.2416965 0
-449.14804 65.205185 -1.26768 0
-402.08249 65.282738 -1.2823855 0
-405.25415 66.487389 -1.2576162 0
-448.59247 68.205788 -1.2548505 0
-404.54568 69.220413 -1.2992469 0
-404.20001 69.2584 -1.2851858 0
-372.02203 70.447182 -1.2315803 0
-372.58591 70.57505 -1.2262098 0
-437.87067 70.895744 -1.2799574 0
-436.69199 70.974136 -1.233946 0
-439.34235 71.585014 -1.2233166 0
-440.63321 72.210297 -1.2097744 0
-424.46741 72.361786 -1.2532082 0
-430.32193 72.586334 -1.2803872 0
-430.12015 72.792473 -1.2680571 0
-430.62787 72.933571 -1.249889 0
-367.15082 74.957207 -1.2440281 0
-392.8009 75.784966 -1.2426449 0
-408.02682 76.937607 -1.2650534 0
-417.47375 80.679008 -1.2147012 0
-426.62512 50.004951 -1.1183635 0
-426.42343 50.104588 -1.1480777 0
-412.7308 50.141312 -1.1826699 0
-416.64996 50.976627 -1.131851 0
-417.28061 53.088657 -1.1724422 0
-390.3302 53.005974 -1.181303 0
-373.00684 53.083439 -1.1346815 0
-435.54965 53.153973 -1.1084418 0
-417.26987 53.110535 -1.1318192 0
-372.82254 53.157093 -1.1022948 0
-403.98312 53.77417 -1.1613221 0
-409.99753 54.840115 -1.1071985 0
-388.04092 56.511467 -1.1253204 0
-427.48508 57.916859 -1.1581296 0
-414.74319 58.004395 -1.1217389 0
-398.97046 59.387249 -1.1712109 0
-399.02332 59.410641 -1.159664 0
-431.26096 62.270237 -1.1064551 0
-431.40414 62.450638 -1.1049161 0
-439.29733 63.304348 -1.1168486 0
-410.79987 67.875267 -1.1322459 0
-448.52557 68.235336 -1.1988597 0
-448.35736 68.259064 -1.1492456 0
-448.80045 68.378922 -1.1554284 0
-441.55673 68.348572 -1.145699 0
-440.67184 68.724083 -1.1523576 0
-392.36758 69.81279 -1.1477776 0
-430.1398 73.32061 -1.1968408 0
-445.40228 76.23201 -1.120611 0
-444.98352 76.245132 -1.1034805 0
-448.76715 77.37941 -1.1033953 0
-383.76773 79.995331 -1.1066377 0
-426.71747 50.072948 -1.0973258 0
-447.66425 50.231895 -1.0069968 0
-437.54132 51.11866 -1.0560352 0
-362.83939 51.599739 -1.0687441 0
-389.60687 52.435799 -1.0107988 0
-389.44244 52.474213 -1.0013218 0
-417.32135 53.122654 -1.0864733 0
-417.17636 53.115112 -1.0868981 0
-373.22791 53.158012 -1.0194473 0
-429.65005 54.052986 -1.0844285 0
-429.74536 54.171349 -1.0801697 0
-429.34778 54.27692 -1.0494142 0
-445.37363 55.123562 -1.0866371 0
-398.94009 55.457848 -1.0124058 0
-407.71945 55.733746 -1.0792575 0
-420.14145 55.896008 -1.0042235 0
-447.82486 55.968357 -1.0359581 0
-420.24036 55.999981 -1.0102464 0
-420.07458 55.941578 -1.096285 0
-447.84619 56.001686 -1.0881193 0
-420.23328 56.093243 -1.0514966 0
-443.73486 58.246506 -1.0723181 0
-410.44434 58.611217 -1.091499 0
-398.82117 59.287083 -1.0202024 0
-414.26334 59.384468 -1.0555245 0
-414.16214 59.3894 -1.0545626 0
-398.89099 59.367008 -1.0893439 0
-398.60596 59.337368 -1.000899 0
-414.08344 59.44347 -1.05142 0
-414.5213 59.698757 -1.0022256 0
-434.80399 60.34898 -1.0208011 0
-394.9534 60.318165 -1.0306796 0
-380.62686 61.173435 -1.0002434 0
-432.08942 62.297398 -1.0963181 0
-412.04663 63.548164 -1.0233163 0
-353.12219 65.005424 -1.0049618 0
-388.39087 65.446693 -1.0343692 0
-352.93591 65.656013 -1.0905007 0
-388.32092 66.16716 -1.0980591 0
-376.04428 67.410088 -1.0947592 0
-410.81857 67.789001 -1.0430043 0
-440.73911 68.701775 -1.0111219 0
-424.3649 72.419518 -1.0202687 0
-439.89902 72.638855 -1.0043218 0
-382.35776 76.155899 -1.0715249 0
-351.25989 77.065285 -1.0234811 0
-389.45993 77.761574 -1.0980934 0
-426.75879 50.027679 -0.96679717 0
-426.65341 50.00042 -0.9574843 0
-426.49545 50.063736 -0.94601542 0
-426.82974 50.182648 -0.9631623 0
-425.75446 50.2117 -0.90927488 0
-437.63864 51.133381 -0.9368847 0
-355.28296 51.305557 -0.99014634 0
-369.59952 52.127663 -0.91582286 0
-364.27676 52.283295 -0.99269754 0
-389.62225 52.358768 -0.91264141 0
-372.9726 53.131657 -0.91985214 0
-403.97372 53.72842 -0.93016636 0
-429.65927 54.086815 -0.90698433 0
-429.47836 54.057373 -0.94030577 0
-429.7392 54.139267 -0.94996059 0
-429.79877 54.215904 -0.98984247 0
-411.34363 54.28162 -0.98740941 0
-420.11591 55.906734 -0.90506387 0
-420.03583 55.926098 -0.90288544 0
-420.3046 56.038147 -0.9962728 0
-368.87753 56.295345 -0.97581494 0
-368.74606 56.265114 -0.9612425 0
-387.62714 56.493225 -0.97795677 0
-382.5166 56.908951 -0.91509581 0
-443.33536 58.23756 -0.9471572 0
-410.49222 58.56205 -0.92649478 0
-398.90466 59.253696 -0.97528386 0
-398.72391 59.336372 -0.96678829 0
-414.17615 59.400097 -0.92050278 0
-414.07571 59.427269 -0.95765489 0
-414.44632 59.594604 -0.92252266 0
-401.93457 61.219685 -0.92717469 0
-411.92169 63.531445 -0.91554892 0
-405.25473 66.446518 -0.99800479 0
-376.28015 67.390518 -0.92251319 0
-410.77805 67.829735 -0.98465157 0
-448.33679 68.384567 -0.92197609 0
-433.04865 72.717369 -0.99586779 0
-440.01703 72.903595 -0.95775253 0
-406.33661 77.412506 -0.92112583 0
-448.12112 79.585037 -0.97075099 0
-382.27344 83.680153 -0.91496354 0
-423.7449 50.463966 -0.85019112 0
-437.76041 51.116749 -0.88531321 0
-437.5769 51.215427 -0.83996594 0
-413.86295 52.3195 -0.86873698 0
-409.78619 52.952412 -0.89779007 0
-433.78882 53.785213 -0.80764711 0
-369.91574 53.705269 -0.86797905 0
-429.53888 54.068974 -0.85197693 0
-388.49182 54.034657 -0.80436736 0
-429.65912 54.1152 -0.86523902 0
-429.39233 54.162704 -0.84735316 0
-440.81345 54.20438 -0.86283982 0
-445.51877 55.07856 -0.84971547 0
-359.64413 55.445221 -0.88198775 0
-359.51398 55.486515 -0.88163072 0
-419.91733 55.99025 -0.84824342 0
-383.02008 56.172539 -0.83192861 0
-387.83984 56.356728 -0.86247039 0
-383.3335 56.392017 -0.88947612 0
-383.24164 56.388317 -0.88066614 0
-383.13229 56.367561 -0.81204748 0
-383.13846 56.424492 -0.8765763 0
-379.45438 57.691734 -0.82589716 0
-379.44119 57.70026 -0.86503464 0
-427.41925 57.893673 -0.82316101 0
-441.68082 58.084297 -0.89232665 0
-443.69687 58.195053 -0.89067519 0
-443.48758 58.150845 -0.81121385 0
-443.39276 58.197475 -0.81293011 0
-443.78525 58.253464 -0.8690241 0
-410.42468 58.56076 -0.84497321 0
-398.85153 59.272083 -0.86157101 0
-414.38553 59.363194 -0.89013022 0
-402.13571 61.172382 -0.86831862 0
-402.03073 61.177177 -0.85321081 0
-402.23749 61.261475 -0.86224633 0
-380.45508 61.253662 -0.89974082 0
-431.01819 62.184639 -0.86478478 0
-431.29367 62.284801 -0.8063578 0
-431.17831 62.257175 -0.80199826 0
-448.08344 62.547165 -0.82620478 0
-439.33884 63.224632 -0.85098696 0
-410.76373 67.780815 -0.81235516 0
-440.69339 68.695152 -0.85562438 0
-372.04663 70.466187 -0.86814666 0
-398.5538 72.103615 -0.86006659 0
-424.21719 72.355179 -0.82262629 0
-440.7197 73.529121 -0.89703423 0
-441.67844 74.42997 -0.83525598 0
-442.26651 74.68425 -0.84792238 0
-441.93405 74.620491 -0.87852782 0
-443.23981 75.940369 -0.85123026 0
-407.25043 79.057083 -0.80971652 0
-423.73895 82.391335 -0.85457379 0
-364.923 83.015213 -0.80214345 0
-426.3656 50.073189 -0.78188419 0
-426.85141 50.210567 -0.71622592 0
-437.77371 51.226658 -0.70662254 0
-389.51205 52.395271 -0.7788837 0
-409.81027 52.96777 -0.74193621 0
-372.85468 53.059669 -0.73438406 0
-372.93658 53.128082 -0.73302698 0
-390.47263 53.250057 -0.73356634 0
-433.78946 53.710823 -0.70420945 0
-429.60028 54.058449 -0.73276305 0
-383.20508 56.421539 -0.78509623 0
-383.01651 56.435158 -0.77305251 0
-439.77951 56.949146 -0.71238101 0
-379.51608 57.697632 -0.79713982 0
-443.47137 58.136604 -0.74733675 0
-443.71811 58.246029 -0.7474125 0
-410.44653 58.598167 -0.78860939 0
-352.35751 58.639435 -0.7401315 0
-414.32883 59.429005 -0.7959795 0
-402.2673 61.080967 -0.79549414 0
-402.17224 61.09713 -0.79405028 0
-402.28201 61.293297 -0.74741113 0
-439.36172 63.215858 -0.77534896 0
-402.27991 65.087204 -0.75469184 0
-402.04446 65.167076 -0.7478798 0
-376.15863 66.089561 -0.74140102 0
-375.79395 67.490601 -0.70163631 0
-431.17487 69.390839 -0.78735596 0
-372.42203 70.477898 -0.70410854 0
-407.74384 79.382149 -0.74934566 0
-420.60934 83.259033 -0.7264058 0
-426.36481 50.139359 -0.61404353 0
-365.75735 50.240063 -0.64446527 0
-441.40784 50.787952 -0.69329673 0
-437.6041 51.087578 -0.68146789 0
-369.46658 52.059734 -0.64468992 0
-438.45322 52.427219 -0.69352722 0
-406.8212 52.456409 -0.61358923 0
-389.47076 52.434853 -0.64336944 0
-389.39029 52.449726 -0.64469665 0
-389.45413 52.516068 -0.61967432 0
-409.81885 52.939659 -0.65154177 0
-390.36157 53.141479 -0.63523924 0
-390.24365 53.104931 -0.65128261 0
-433.83328 53.669281 -0.65090168 0
-360.29895 55.54446 -0.60678393 0
-420.1239 55.942116 -0.66483802 0
-420.00192 55.926567 -0.61548042 0
-382.92822 56.255707 -0.6748572 0
-387.70163 56.397793 -0.68482268 0
-383.31064 56.468887 -0.66259527 0
-443.54001 58.093891 -0.63307995 0
-443.61942 58.153603 -0.62322313 0
-443.4332 58.172356 -0.63849217 0
-443.65546 58.208015 -0.66112816 0
-443.30807 58.204918 -0.67050678 0
-398.74652 59.245651 -0.64709753 0
-414.33136 59.358635 -0.62545675 0
-398.74173 59.309307 -0.66053301 0
-414.06049 59.534119 -0.68833685 0
-413.96408 59.531254 -0.60378128 0
-414.58566 59.636173 -0.68583477 0
-402.29266 61.283226 -0.65956026 0
-431.14008 62.222916 -0.61138451 0
-402.37042 65.124947 -0.60280257 0
-402.02029 65.278358 -0.61329579 0
-404.35876 69.17527 -0.6855855 0
-419.93726 71.07608 -0.65865296 0
-437.90494 73.803253 -0.60654557 0
-434.01663 74.091995 -0.67964798 0
-441.11484 75.039299 -0.62549812 0
-431.38309 75.442551 -0.69620591 0
-442.82611 76.170441 -0.64356565 0
-430.40549 76.381828 -0.68797535 0
-403.47751 78.430016 -0.69650984 0
-403.06204 78.466827 -0.675134 0
-448.02829 80.912086 -0.63155401 0
-447.65945 50.173771 -0.56700778 0
-366.19324 50.392925 -0.57137781 0
-423.64917 50.401123 -0.58996511 0
-366.10077 50.420929 -0.53824139 0
-446.54196 51.047482 -0.51119256 0
-437.65698 51.103466 -0.5265851 0
-437.46121 51.212337 -0.50713706 0
-424.08167 51.559616 -0.54894775 0
-424.37808 52.044903 -0.53536731 0
-389.56934 52.40062 -0.58863026 0
-373.04642 53.164276 -0.56763101 0
-373.11877 53.210041 -0.5717029 0
-433.80716 53.736622 -0.50186622 0
-429.14319 53.757488 -0.57888156 0
-429.05487 53.766304 -0.57900518 0
-429.76483 54.167603 -0.55524582 0
-429.77533 54.240635 -0.52483934 0
-356.63159 55.055225 -0.50651073 0
-420.02341 55.928391 -0.53296113 0
-420.20667 56.017189 -0.54697478 0
-383.28101 56.383957 -0.56771892 0
-443.2977 58.128056 -0.50537115 0
-443.7533 58.332451 -0.52506185 0
-398.74326 59.24017 -0.51584828 0
-414.50113 59.451073 -0.54421705 0
-394.70767 60.273983 -0.58148217 0
-434.91473 60.308247 -0.58176345 0
-431.25034 62.282692 -0.52202874 0
-431.12927 65.078842 -0.59315199 0
-440.61664 68.721474 -0.57817298 0
-440.71109 68.813942 -0.52083015 0
-436.69055 73.758179 -0.5814929 0
-435.73178 74.14621 -0.53184259 0
-438.43854 74.235771 -0.55460376 0
-433.41016 74.653709 -0.57455647 0
-433.01767 74.747414 -0.54830301 0
-431.3783 75.796707 -0.54634362 0
-442.94614 77.768356 -0.51494259 0
-426.36349 50.109596 -0.4416292 0
-366.22885 50.404709 -0.47081581 0
-432.57156 50.713116 -0.49090937 0
-416.61459 50.940536 -0.44863036 0
-407.00125 52.481056 -0.47711608 0
-442.98975 52.699127 -0.46376505 0
-409.82605 52.986942 -0.45151529 0
-390.55957 53.021236 -0.42328852 0
-390.38049 53.087559 -0.47311437 0
-390.57166 53.183029 -0.40597901 0
-390.11996 53.197945 -0.42130437 0
-429.47009 54.087315 -0.43791774 0
-429.71982 54.176975 -0.44788507 0
-429.39362 54.155151 -0.41708386 0
-359.56519 55.418152 -0.45611635 0
-420.14334 55.977989 -0.4034034 0
-420.0712 55.930187 -0.44855359 0
-387.90717 56.39603 -0.46779856 0
-387.83527 56.367077 -0.4128736 0
-387.79214 56.375969 -0.45851552 0
-368.88464 56.344788 -0.43352962 0
-387.98975 56.515209 -0.42128319 0
-427.32822 57.895512 -0.46396136 0
-443.65869 58.129791 -0.44045392 0
-443.47745 58.135807 -0.46794161 0
-443.31903 58.244099 -0.44958815 0
-414.12048 59.416058 -0.46921209 0
-414.5556 59.547348 -0.44700232 0
-394.65701 60.36237 -0.456723 0
-402.02707 61.176884 -0.4898473 0
-380.49893 61.164761 -0.45317438 0
-402.36456 65.120178 -0.49280921 0
-410.70511 67.797417 -0.4683753 0
-440.61578 68.6978 -0.42635083 0
-424.4729 72.578255 -0.45142573 0
-433.91635 74.280235 -0.47986093 0
-437.4964 74.374718 -0.41053203 0
-370.29773 79.687698 -0.40579462 0
-418.28455 84.305061 -0.45786726 0
-377.45129 50.391495 -0.33542469 0
-423.58908 50.448982 -0.3540915 0
-437.63303 51.082798 -0.32730746 0
-437.52814 51.148357 -0.34302866 0
-437.81332 51.21312 -0.3499606 0
-437.76233 51.240074 -0.3129735 0
-377.26138 52.159996 -0.36108962 0
-372.81888 53.09412 -0.32599214 0
-390.32239 53.213566 -0.39392316 0
-373.05838 53.365181 -0.37619025 0
-433.90515 53.696426 -0.38124043 0
-429.79849 54.161846 -0.347047 0
-429.67502 54.131855 -0.37145475 0
-445.41699 55.016266 -0.32629451 0
-409.96133 55.247807 -0.32571453 0
-359.61591 55.287781 -0.37221229 0
-359.5636 55.415176 -0.39921966 0
-419.99658 55.892345 -0.31122014 0
-420.11853 55.919514 -0.32175496 0
-382.9906 56.292809 -0.34965628 0
-387.90326 56.403568 -0.34795272 0
-382.98102 56.513233 -0.32854819 0
-439.83762 56.930489 -0.30589399 0
-443.33102 58.12952 -0.35627776 0
-352.15622 59.498787 -0.30312893 0
-440.58557 68.721954 -0.34950429 0
-372.03146 70.258781 -0.35856918 0
-423.89096 72.476036 -0.33075768 0
-437.13092 74.936485 -0.38411686 0
-436.68082 74.963615 -0.39269 0
-434.43677 75.152496 -0.35343888 0
-434.02237 75.256363 -0.34520215 0
-432.84949 76.104439 -0.311463 0
-443.08994 78.351799 -0.39339828 0
-449.80258 81.468529 -0.33695433 0
-411.71027 83.661842 -0.35677019 0
-423.6521 84.698509 -0.31463188 0
-447.59427 50.147568 -0.2763741 0
-431.18109 50.501709 -0.24289617 0
-445.70184 50.77076 -0.27734631 0
-416.61169 50.965416 -0.26185018 0
-437.67834 51.053619 -0.29062063 0
-437.78424 51.136452 -0.26783887 0
-437.60358 51.108143 -0.29024714 0
-437.57147 51.120934 -0.20317242 0
-437.46527 51.218876 -0.29246786 0
-356.34961 52.208244 -0.24563181 0
-389.49905 52.34869 -0.26302269 0
-436.19019 52.717144 -0.2591348 0
-409.7334 52.963013 -0.28814059 0
-403.60773 53.219555 -0.25424626 0
-369.73822 53.663094 -0.22298536 0
-404.03616 53.806019 -0.26988164 0
-441.03412 54.26112 -0.24006772 0
-429.82217 54.222038 -0.23426799 0
-445.41821 55.001637 -0.22774521 0
-445.34485 55.030853 -0.21373585 0
-420.07178 55.936695 -0.27655265 0
-387.92297 56.314751 -0.21832621 0
-387.80551 56.364006 -0.20668073 0
-368.88879 56.381859 -0.22087564 0
-383.23352 56.43211 -0.27920312 0
-414.1962 59.359566 -0.29345223 0
-380.54065 61.240959 -0.28796288 0
-431.21756 62.232395 -0.24865513 0
-431.16119 62.237389 -0.26114348 0
-404.15778 69.186111 -0.27699661 0
-435.66962 75.101051 -0.26079172 0
-421.48764 80.939217 -0.22609685 0
-426.41766 50.013084 -0.16412809 0
-447.58508 50.107018 -0.1294284 0
-426.38229 50.103664 -0.12889317 0
-448.50891 50.342655 -0.12419969 0
-423.48264 50.374443 -0.11565958 0
-366.54712 50.754517 -0.19344632 0
-437.72803 51.105644 -0.17242903 0
-356.34909 52.249523 -0.16126966 0
-389.52115 52.39595 -0.18474342 0
-389.70578 52.488007 -0.15001088 0
-389.62976 52.429451 -0.1952024 0
-389.38983 52.474247 -0.13849027 0
-407.42215 52.6297 -0.12071322 0
-372.78372 53.08691 -0.12108565 0
-373.04987 53.223339 -0.15543208 0
-429.21707 53.72765 -0.15754296 0
-404.03738 53.921719 -0.14542288 0
-429.59305 54.048416 -0.19140209 0
-429.76312 54.130257 -0.10815383 0
-445.38876 54.96505 -0.14032909 0
-359.56949 55.250927 -0.15376252 0
-447.82428 55.802425 -0.18438822 0
-387.9964 56.49268 -0.19438535 0
-383.1846 56.449341 -0.19931261 0
-439.91595 56.948509 -0.14944856 0
-379.41843 57.63237 -0.16460678 0
-414.23593 59.389324 -0.13759322 0
-398.86902 59.366341 -0.12102778 0
-376.20648 66.047379 -0.15558785 0
-376.06616 66.019669 -0.18655179 0
-370.47241 67.567673 -0.14760619 0
-370.36203 67.560066 -0.14404371 0
-448.5585 68.231285 -0.10282953 0
-404.3877 69.194267 -0.11287761 0
-437.32709 75.495171 -0.10000061 0
-404.80716 81.652519 -0.10708983 0
-445.1355 82.088745 -0.18421789 0
-447.63995 50.067078 -0.009001499 0
-431.26971 50.361244 -0.0038044131 0
-448.89832 50.407669 -0.095809922 0
-441.40625 50.7854 -0.075223267 0
-437.58221 51.086323 -0.045796622 0
-369.31149 52.017788 -0.046841253 0
-377.36084 52.301132 -0.063112102 0
-390.2641 53.243416 -0.069138765 0
-372.70956 53.233032 -0.010314254 0
-429.76175 54.096348 -0.095773339 0
-429.61508 54.046844 -0.090777934 0
-429.42282 54.225105 -0.052884504 0
-359.62622 55.178749 -0.06566821 0
-420.03192 55.86433 -0.011537925 0
-420.01288 55.96933 -0.033756293 0
-388.08026 56.579731 -0.046617426 0
-439.82376 56.980904 -0.020207264 0
-379.22372 57.612408 -0.056960538 0
-441.62192 58.058117 -0.066441871 0
-443.46478 58.162888 -0.041454554 0
-443.28299 58.182087 -0.025249455 0
-402.10156 61.133453 -0.065261804 0
-431.16589 62.233845 -0.090070888 0
-402.17584 65.074089 -0.062325671 0
-405.28503 66.552628 -0.036665395 0
-376.26166 67.370934 -0.028065823 0
-376.41733 67.503403 -0.086878717 0
-370.30194 67.528343 -0.090867855 0
-448.45352 68.136871 -0.079633519 0
-374.38498 73.893463 -0.003760624 0
-398.2511 75.200912 -0.015997848 0
-402.27774 81.350479 -0.073262841 0
-415.08261 85.132324 -0.087875396 0
-431.15823 50.330036 0.087385893 0
-423.54922 50.350239 0.04728828 0
-437.42542 51.184437 0.098985709 0
-369.51157 52.070518 0.0014349781 0
-438.44446 52.511189 0.067422032 0
-446.77032 52.61879 0.050578158 0
-372.82275 53.130291 0.029560667 0
-372.78564 53.198952 0.0075439247 0
-429.56329 54.030178 0.02147162 0
-429.39188 54.069405 0.022926077 0
-388.10901 54.233986 0.060002148 0
-413.59543 54.482651 0.020580653 0
-445.36292 54.969509 0.083233014 0
-444.69504 55.676285 0.071713142 0
-420.08609 55.932816 0.048845813 0
-419.96948 55.942459 0.039732907 0
-419.92938 56.039246 0.083484493 0
-382.88235 56.417347 0.056393769 0
-383.22171 56.569027 0.011372949 0
-443.25156 58.256016 0.049422566 0
-443.17551 58.330418 0.048639745 0
-443.72424 58.41383 0.023296474 0
-443.13477 58.500263 0.0096575674 0
-398.81189 59.239525 0.092385232 0
-398.89792 59.326546 0.088022172 0
-394.7038 60.325745 0.043263003 0
-402.26361 61.19104 0.018848218 0
-401.96304 61.226124 0.036318861 0
-351.58878 65.905495 0.048541781 0
-448.79282 68.313469 0.078379713 0
-404.2688 69.147316 0.036858045 0
-430.11942 82.047768 0.053972743 0
-426.46112 50.00631 0.17383949 0
-434.53851 50.186672 0.12317423 0
-423.54257 50.296059 0.18831666 0
-423.57153 50.329628 0.15256324 0
-437.62067 51.031574 0.19021019 0
-437.47382 51.110374 0.15097117 0
-369.13428 51.972878 0.19441816 0
-369.38272 52.02533 0.18209942 0
-389.6058 52.354679 0.19394502 0
-389.29428 52.409863 0.16486868 0
-390.46234 53.052151 0.15078782 0
-372.95422 53.170818 0.18607491 0
-390.35831 53.22995 0.14962433 0
-390.28964 53.291645 0.15527377 0
-390.57153 53.309883 0.14489351 0
-372.61218 53.333008 0.10730265 0
-429.1312 53.606884 0.17770408 0
-440.45374 53.719315 0.12761916 0
-429.80029 53.958961 0.17501484 0
-388.07809 54.116901 0.19881812 0
-445.43771 54.904675 0.10895722 0
-359.52872 55.466587 0.19033609 0
-399.51672 55.521732 0.16469781 0
-387.93521 56.416389 0.13039821 0
-383.18738 56.449871 0.1499534 0
-382.99741 56.479309 0.16544513 0
-379.35535 57.63739 0.18663822 0
-441.56259 58.008289 0.1516147 0
-443.50906 58.142818 0.10587496 0
-398.86423 59.211731 0.1850369 0
-398.71701 59.237602 0.19497755 0
-414.43686 59.397446 0.12150226 0
-414.45724 59.427288 0.15016921 0
-413.99185 59.642334 0.15042967 0
-394.60712 60.285439 0.14347403 0
-448.12634 62.622921 0.1663962 0
-369.47308 67.290482 0.18489753 0
-404.54102 69.296028 0.1126983 0
-429.93036 73.637177 0.18920512 0
-401.36487 81.752899 0.11359295 0
-412.82889 83.90947 0.15515968 0
-424.11703 51.551556 0.21613987 0
-423.9736 51.592854 0.23033758 0
-369.12375 51.891701 0.24434403 0
-369.2886 52.051952 0.20980009 0
-413.8067 52.260845 0.29260811 0
-389.22983 52.285805 0.23284271 0
-389.63055 52.377274 0.26683736 0
-389.53815 52.39539 0.22466655 0
-429.74414 54.080624 0.2544269 0
-429.3194 54.167057 0.29385173 0
-359.534 55.064354 0.22792266 0
-359.31229 55.162479 0.26351559 0
-368.65091 56.336205 0.29524595 0
-387.97205 56.424603 0.21845867 0
-368.79285 56.429657 0.23066486 0
-439.88882 56.995529 0.24352652 0
-379.25006 57.545868 0.21431708 0
-443.672 58.134388 0.27589348 0
-443.57584 58.139359 0.22214481 0
-443.39163 58.144512 0.24426307 0
-443.7023 58.204506 0.22964707 0
-380.42108 61.248989 0.21003719 0
-402.13766 65.097343 0.21256147 0
-404.44165 69.168472 0.21661058 0
-392.36523 69.864449 0.24243349 0
-371.99979 70.338524 0.23126347 0
-372.25262 76.653427 0.21167149 0
-416.53702 50.932014 0.38371423 0
-437.71072 51.050083 0.39666492 0
-437.60782 51.051174 0.33662111 0
-389.64865 52.495094 0.3390429 0
-438.34836 52.512611 0.34288457 0
-409.74896 52.957294 0.37375146 0
-372.80215 52.971535 0.39191943 0
-372.90549 53.147285 0.3395946 0
-390.29678 53.277401 0.37903872 0
-372.98715 53.25346 0.39876655 0
-443.84677 53.495338 0.39744624 0
-433.84949 53.699829 0.34808287 0
-429.56274 53.980728 0.34331155 0
-429.54718 54.062206 0.35490501 0
-429.48611 54.045044 0.35005787 0
-429.79843 54.140564 0.36323977 0
-359.58878 55.057682 0.37985948 0
-359.35776 55.459042 0.30047071 0
-359.52536 55.511375 0.35116118 0
-420.26944 56.090508 0.32918182 0
-420.0932 56.007206 0.38072821 0
-443.49451 58.097313 0.33587942 0
-443.5629 58.16301 0.33375013 0
-443.7164 58.257587 0.39996445 0
-410.27426 58.631027 0.31101069 0
-414.33496 59.35339 0.31890765 0
-414.2439 59.338234 0.32186913 0
-398.56577 59.318375 0.36565518 0
-414.61136 59.571259 0.3457436 0
-445.54245 59.777435 0.32870489 0
-380.39713 61.211548 0.35740891 0
-448.09827 62.560371 0.3448225 0
-429.42902 64.990654 0.37698737 0
-402.29425 65.122681 0.32728204 0
-369.10321 67.140381 0.33722928 0
-376.16351 67.314194 0.35203573 0
-441.73984 68.180916 0.32636493 0
-440.50363 68.711075 0.30037636 0
-424.32462 72.226799 0.31841353 0
-444.51065 85.59127 0.37852594 0
-414.84158 87.321487 0.39355636 0
-431.05188 50.226868 0.42301568 0
-441.41367 50.767796 0.47262061 0
-446.33817 51.066776 0.48380849 0
-437.6517 51.070728 0.46283922 0
-424.06342 51.545387 0.40279496 0
-388.8735 52.031857 0.49861208 0
-369.04718 52.042755 0.45178285 0
-389.53357 52.349709 0.4918586 0
-389.50436 52.406033 0.41711366 0
-372.81088 53.060867 0.42957568 0
-372.94125 53.171368 0.42023423 0
-372.87463 53.118332 0.41824114 0
-390.50247 53.243507 0.46061707 0
-390.44037 53.246143 0.475418 0
-372.52832 53.497528 0.40055266 0
-429.11816 53.606998 0.43410671 0
-369.69943 53.702469 0.47188815 0
-359.39627 54.959831 0.46822467 0
-371.99179 55.623894 0.4440909 0
-419.87582 56.095272 0.49269453 0
-387.79636 56.400688 0.42820537 0
-383.00229 56.491798 0.41714147 0
-382.96954 56.450737 0.48048508 0
-414.4743 58.659668 0.48468465 0
-410.27103 58.639114 0.44171408 0
-398.75729 59.175346 0.45474139 0
-414.26974 59.424591 0.4257715 0
-414.15396 59.412926 0.48974559 0
-414.55939 59.68565 0.46169487 0
-394.62692 60.320644 0.44329977 0
-402.40051 61.282341 0.43594092 0
-402.10648 61.23098 0.44321391 0
-380.46243 61.348129 0.47226676 0
-375.9837 65.954613 0.40432423 0
-376.20316 67.405067 0.47628328 0
-415.07336 67.643883 0.46629229 0
-371.20941 68.650002 0.40684801 0
-392.33069 69.860283 0.40296316 0
-406.18695 84.765533 0.42124268 0
-431.01788 50.233997 0.50478464 0
-363.56842 50.240665 0.53529274 0
-437.53415 51.090981 0.56396061 0
-393.79712 52.087936 0.55648226 0
-369.56342 52.037296 0.55541843 0
-389.67303 52.31242 0.55357873 0
-438.40079 52.446167 0.50663352 0
-389.53149 52.451035 0.55578786 0
-372.57544 53.162724 0.51391256 0
-372.90698 53.219845 0.50184274 0
-433.94849 53.704304 0.53033137 0
-429.56049 54.03038 0.51649463 0
-429.4678 54.056122 0.50381434 0
-440.99911 54.199955 0.51577306 0
-440.92657 54.240063 0.56910986 0
-413.36316 54.404285 0.5005635 0
-359.52933 54.954365 0.55054677 0
-359.51111 55.006126 0.57511717 0
-359.48376 55.093948 0.52257383 0
-359.53299 55.409412 0.5858047 0
-439.58224 55.616322 0.55969018 0
-387.82748 56.419651 0.5166713 0
-387.79718 56.401699 0.54988045 0
-379.33548 57.597206 0.54961747 0
-443.14758 58.489201 0.52117658 0
-398.83679 59.24321 0.56386024 0
-414.28806 59.327007 0.55161935 0
-414.39572 59.40926 0.57334352 0
-414.05576 59.448097 0.59152651 0
-398.46179 59.404556 0.59884357 0
-380.50208 61.379559 0.5443055 0
-380.40631 61.30468 0.54412889 0
-448.06677 62.509552 0.55656999 0
-447.99228 62.5522 0.56536824 0
-439.35861 63.21442 0.58347154 0
-376.15738 67.431915 0.56402212 0
-404.48489 69.167038 0.58841729 0
-404.34488 69.144104 0.53889841 0
-374.22931 73.903877 0.55864614 0
-370.12054 79.460205 0.59529632 0
-447.61536 50.074638 0.69733226 0
-447.49313 50.026413 0.63585848 0
-426.37451 50.106049 0.65053546 0
-416.54178 50.826218 0.61326748 0
-437.66937 51.088112 0.62626672 0
-437.43427 51.157269 0.68697703 0
-358.23581 51.348434 0.69099724 0
-354.77393 52.085804 0.69513756 0
-389.64893 52.398548 0.64444488 0
-356.61209 52.692829 0.64289403 0
-373.03586 53.238445 0.6695565 0
-372.96207 53.205303 0.66820884 0
-372.71518 53.260693 0.68486112 0
-373.09262 53.469849 0.64471465 0
-369.55362 53.651875 0.60954696 0
-429.48666 54.175869 0.61711144 0
-372.30536 54.79707 0.60805637 0
-359.65045 54.953743 0.62616235 0
-359.51074 55.485573 0.6874606 0
-423.17587 55.92654 0.60530078 0
-419.95621 55.994865 0.62677491 0
-368.77295 56.425812 0.68595743 0
-443.40463 58.116932 0.64370197 0
-443.36749 58.1287 0.64334643 0
-443.67535 58.231533 0.69286346 0
-443.15469 58.385666 0.64685172 0
-355.44345 58.855335 0.65771782 0
-398.71747 59.256611 0.64286423 0
-414.33453 59.339069 0.67032868 0
-394.6478 60.321056 0.61582404 0
-402.20596 61.117645 0.6633656 0
-402.03568 61.246178 0.67023063 0
-431.11395 62.15752 0.68036014 0
-430.89136 62.285763 0.64660275 0
-426.37827 50.033421 0.7491377 0
-437.48154 51.120045 0.72221655 0
-358.15265 51.332634 0.70166278 0
-412.78687 51.40062 0.76428121 0
-389.53537 52.388008 0.71044105 0
-390.64417 53.199806 0.71392369 0
-372.92606 53.19746 0.777255 0
-373.08398 53.312347 0.72808737 0
-429.58276 53.926849 0.7260704 0
-429.76947 54.068878 0.79991817 0
-445.33765 54.902546 0.7993744 0
-359.14444 55.04818 0.78723013 0
-359.64716 55.504734 0.79437315 0
-420.02545 55.946373 0.76969028 0
-383.15436 56.521656 0.79429632 0
-427.30634 57.784992 0.71805972 0
-427.2692 57.79023 0.70634025 0
-410.28787 58.621372 0.76537162 0
-398.90521 59.184551 0.72599632 0
-414.47849 59.374321 0.70434141 0
-394.65195 60.287445 0.73661077 0
-402.29269 61.122639 0.70909899 0
-380.23871 61.387836 0.70643121 0
-431.04065 62.131969 0.74856579 0
-448.77139 68.437042 0.71234906 0
-404.47058 69.216927 0.78643048 0
-447.53989 50.040131 0.80668145 0
-437.64496 51.051136 0.83383375 0
-437.58047 51.076435 0.86201298 0
-413.62781 52.153851 0.86495757 0
-389.55707 52.336658 0.85558158 0
-390.42487 53.248875 0.84813488 0
-390.31601 53.296326 0.86528593 0
-390.65024 53.764778 0.86935496 0
-369.66928 53.715141 0.85037422 0
-429.61951 53.975239 0.88672268 0
-390.64343 53.96027 0.87065971 0
-429.65448 54.01141 0.88715601 0
-429.49261 54.093811 0.86765736 0
-440.91763 54.212128 0.80385423 0
-406.51105 54.487648 0.87016404 0
-445.44656 54.820076 0.86848569 0
-359.11258 55.386723 0.84013736 0
-444.57916 55.585999 0.84339964 0
-439.63177 55.691078 0.8768788 0
-447.72772 55.800644 0.87977111 0
-419.86853 55.913719 0.82198757 0
-387.78757 56.388603 0.8062579 0
-387.39346 56.581234 0.82571912 0
-383.19019 56.553112 0.87548614 0
-443.64041 58.099236 0.85367239 0
-443.40503 58.097332 0.88443214 0
-443.68744 58.155704 0.81946969 0
-443.55258 58.19128 0.87541997 0
-443.30582 58.17712 0.86988103 0
-445.54291 59.727428 0.85907948 0
-402.29877 61.214264 0.89027923 0
-430.94315 62.167198 0.82832193 0
-435.59586 63.950237 0.82217342 0
-350.83292 65.431862 0.88376546 0
-386.12024 83.425674 0.83500785 0
-423.49387 50.23735 0.96478677 0
-423.5043 50.30518 0.91674978 0
-437.63254 51.017345 0.97408736 0
-437.57166 51.024403 0.93416101 0
-437.52493 51.175388 0.9854185 0
-424.05737 51.556671 0.9989422 0
-423.95029 51.512463 0.93233961 0
-368.76294 51.92487 0.92028165 0
-389.67081 52.194286 0.93134511 0
-368.68878 52.122993 0.9851777 0
-376.98706 52.443829 0.97953838 0
-372.71451 53.241917 0.95539367 0
-428.98141 53.554611 0.933469 0
-429.58078 54.034939 0.99157327 0
-445.38193 54.874603 0.97973907 0
-359.33228 54.853497 0.90324706 0
-420.26178 55.842361 0.9269585 0
-423.26059 56.006245 0.96021497 0
-382.84778 56.240372 0.99765211 0
-387.83575 56.397697 0.9027127 0
-367.91644 56.313007 0.93142581 0
-382.77109 56.439262 0.95804119 0
-443.52786 58.116932 0.99276721 0
-380.43024 61.307468 0.92661321 0
-430.99429 62.154686 0.9676317 0
-402.20511 65.130783 0.97774255 0
-448.5788 68.053169 0.94007623 0
-372.17734 70.340576 0.9960956 0
-421.80789 89.711517 0.91149867 0
-446.15546 50.990185 1.0007483 0
-446.2012 51.071098 1.047027 0
-393.92099 51.976746 1.0761614 0
-355.58142 51.91621 1.0474654 0
-413.51279 52.058304 1.0621841 0
-369.15643 52.037365 1.0784384 0
-368.0152 52.293518 1.0825289 0
-367.95746 52.28809 1.0651902 0
-389.58337 52.390953 1.0678035 0
-389.39645 52.330418 1.0282353 0
-443.159 52.541782 1.0308318 0
-372.93024 53.209309 1.0832716 0
-429.05444 53.515457 1.0541347 0
-429.82996 54.149723 1.0997115 0
-445.32751 54.819008 1.0460882 0
-419.92773 55.852673 1.065524 0
-419.90787 55.917961 1.0245725 0
-419.86084 56.041218 1.0123545 0
-383.10773 56.386238 1.0690447 0
-382.97379 56.300667 1.0755781 0
-387.90707 56.493927 1.0879287 0
-367.73502 56.441181 1.0619888 0
-443.30829 58.169395 1.0451379 0
-398.74167 59.23851 1.0464997 0
-414.53046 59.543976 1.0778482 0
-394.5675 60.246532 1.0313615 0
-402.13782 61.138332 1.0799516 0
-431.20401 62.198849 1.03427 0
-402.10074 65.199165 1.0531272 0
-368.01486 66.710548 1.0444127 0
-410.66769 67.773849 1.0184644 0
-448.53189 68.195015 1.0481255 0
-404.53705 69.256783 1.05567 0
-429.62958 73.629044 1.0198108 0
-432.75598 79.080772 1.0434697 0
-370.44022 79.426018 1.0507977 0
-447.50208 50.009132 1.1407068 0
-434.93512 50.291515 1.1052548 0
-356.42902 50.695473 1.1241693 0
-437.76376 51.099541 1.1108583 0
-437.68793 51.066311 1.1061674 0
-357.23145 51.134846 1.1703682 0
-368.62546 51.812706 1.1953628 0
-372.50101 53.16024 1.128239 0
-390.46039 53.217094 1.1126877 0
-390.27747 53.306118 1.182048 0
-369.51459 53.747051 1.1046124 0
-419.9274 55.92453 1.1398365 0
-419.8421 55.969593 1.1404483 0
-387.71075 56.363697 1.1107662 0
-387.65106 56.366207 1.1275474 0
-387.62308 56.443031 1.1701767 0
-368.74741 56.488503 1.1731534 0
-439.83527 56.946365 1.1411371 0
-439.7742 56.927883 1.1735333 0
-379.25333 57.549606 1.1579186 0
-441.5354 58.052788 1.1813972 0
-443.28268 58.150711 1.1362389 0
-443.15527 58.316486 1.179641 0
-398.63458 59.173851 1.1273139 0
-398.55029 59.181175 1.1807792 0
-434.93576 60.217758 1.1304402 0
-394.59659 60.237083 1.1993334 0
-402.31601 61.102203 1.198193 0
-383.83038 61.87682 1.1995677 0
-431.05103 62.176697 1.1529543 0
-430.9624 62.144054 1.1771489 0
-402.24231 65.143311 1.1008933 0
-410.73019 67.728188 1.1889875 0
-351.92416 76.296021 1.1487687 0
-368.61118 51.799511 1.2408569 0
-369.12259 52.091251 1.2621778 0
-369.2019 52.113739 1.260483 0
-389.43005 52.344383 1.2142828 0
-372.77438 53.223362 1.2978032 0
-390.41293 53.308376 1.2721565 0
-429.11813 53.583759 1.2016295 0
-429.05655 53.547871 1.2177814 0
-429.73935 54.174355 1.2727354 0
-413.15591 54.374588 1.2198325 0
-445.3967 54.7621 1.2130407 0
-445.2854 54.732265 1.2638614 0
-361.07968 55.409706 1.2298803 0
-420.02716 55.940575 1.2212394 0
-419.94827 55.931625 1.2390628 0
-443.54971 58.035419 1.2255369 0
-443.48184 58.075188 1.2321041 0
-398.74606 59.192139 1.2419175 0
-398.68826 59.13678 1.2829146 0
-414.26901 59.412155 1.2649752 0
-414.159 59.405205 1.2416137 0
-383.61093 61.739956 1.2043343 0
-430.84885 62.095543 1.2356665 0
-431.16254 62.198586 1.2394698 0
-402.21902 65.071274 1.2560788 0
-352.75647 65.468643 1.2198653 0
-352.64789 65.471199 1.2386148 0
-352.86066 65.55603 1.2158362 0
-440.63992 68.573647 1.2079378 0
-398.3576 72.213806 1.2324136 0
-432.81635 79.070648 1.2093533 0
-389.81451 80.421173 1.2694824 0
-423.47766 50.162457 1.3956115 0
-423.51111 50.22184 1.3283596 0
-368.57285 51.794682 1.3668085 0
-389.44366 52.316132 1.3015027 0
-443.2308 52.480282 1.3188156 0
-356.92252 52.760319 1.3316822 0
-372.82956 53.197105 1.3702269 0
-372.52328 53.260651 1.3110756 0
-372.26306 53.443264 1.3517448 0
-429.0741 53.629936 1.3506467 0
-369.63522 53.798378 1.3485014 0
-429.79471 53.947525 1.3687141 0
-429.51535 53.9814 1.3836067 0
-429.76093 54.095177 1.3520004 0
-429.65784 54.024998 1.3417468 0
-359.32703 54.872063 1.3973382 0
-359.439 55.384529 1.3912109 0
-420.06076 56.015556 1.3924359 0
-382.9761 56.388359 1.3746262 0
-382.76099 56.48912 1.3059573 0
-439.89078 56.883427 1.3759778 0
-439.76065 56.917347 1.3135636 0
-443.73828 58.298279 1.3027163 0
-443.17465 58.295582 1.3588386 0
-414.16513 59.385174 1.359405 0
-414.07297 59.440239 1.366666 0
-414.52896 59.537537 1.3891231 0
-402.03455 61.203598 1.3164678 0
-380.4621 61.338097 1.3169612 0
-431.03571 62.126266 1.3703991 0
-430.81653 62.173244 1.3953645 0
-431.19098 62.303749 1.3861653 0
-388.15128 66.245934 1.3962312 0
-388.0918 66.26416 1.3032705 0
-376.25842 67.417953 1.399507 0
-448.71133 68.167473 1.368433 0
-423.98611 72.181358 1.3986195 0
-374.14514 73.789581 1.3041129 0
-421.31409 80.96344 1.3816516 0
-364.28711 82.898323 1.3426306 0
-437.64288 51.03199 1.4662201 0
-437.54373 51.000854 1.4834802 0
-423.87463 51.470173 1.4517585 0
-369.15781 52.126923 1.4979372 0
-377.27975 52.290028 1.485285 0
-389.43253 52.31004 1.4707471 0
-409.67798 52.962643 1.4136231 0
-372.64688 53.277927 1.4792877 0
-372.92957 53.404659 1.4423013 0
-372.50748 53.400352 1.4940056 0
-372.32086 53.460205 1.4578137 0
-429.42139 53.9533 1.4946018 0
-429.42438 54.034557 1.420393 0
-429.33405 54.032646 1.4189188 0
-359.39471 55.045631 1.4740617 0
-359.51514 55.456951 1.4695799 0
-420.00443 55.913727 1.4005562 0
-387.48206 56.433144 1.448613 0
-362.49463 57.202202 1.4633415 0
-443.46606 58.00441 1.4806937 0
-398.55243 59.228054 1.4743556 0
-398.46802 59.301937 1.4058861 0
-414.36444 59.433777 1.4031118 0
-353.1521 59.431271 1.4447788 0
-394.85892 60.263977 1.4922849 0
-394.78036 60.334995 1.4108224 0
-383.78482 61.884357 1.4843961 0
-430.87408 62.186069 1.4562788 0
-431.21375 62.204807 1.4448318 0
-431.17764 62.236099 1.4023554 0
-430.8653 62.219383 1.4099656 0
-448.814 68.109695 1.478794 0
-448.69742 68.121902 1.4751252 0
-448.819 68.238235 1.4733124 0
-448.50455 68.271698 1.485378 0
-432.95132 79.065773 1.424191 0
-448.28909 50.604744 1.546122 0
-437.56235 51.03896 1.5028089 0
-437.47638 51.133289 1.5504816 0
-423.90506 51.521202 1.5524203 0
-369.34503 52.00774 1.5795221 0
-389.62442 52.189293 1.5486234 0
-389.71765 52.227264 1.590165 0
-389.37894 52.36871 1.5715842 0
-424.65814 52.444744 1.5955911 0
-390.72485 53.290646 1.5092642 0
-372.7673 53.236507 1.5902675 0
-428.97354 53.465839 1.5216388 0
-369.35028 53.813698 1.5041646 0
-429.53299 53.970089 1.597446 0
-429.41776 54.007187 1.5426916 0
-429.34607 54.220303 1.5225618 0
-445.34412 54.752808 1.550235 0
-445.29053 54.79343 1.5377284 0
-419.97742 56.001503 1.5408187 0
-419.85617 56.004223 1.5720869 0
-443.62671 58.105198 1.5533056 0
-443.5903 58.143028 1.5616078 0
-443.40009 58.113388 1.5028399 0
-443.23914 58.153191 1.5513339 0
-443.62115 58.215748 1.5206211 0
-398.64178 59.190796 1.5117801 0
-398.55435 59.287098 1.5691838 0
-414.1983 59.384483 1.5766994 0
-414.01752 59.453548 1.5760696 0
-394.77637 60.283878 1.5050306 0
-394.69785 60.350937 1.5166414 0
-402.25671 61.03582 1.5149333 0
-380.39697 61.430798 1.5907512 0
-431.27179 62.26619 1.5849805 0
-354.23587 65.524353 1.5991908 0
-354.00146 65.605263 1.5542791 0
-423.9729 72.187218 1.5418181 0
-429.71686 73.524605 1.5315166 0
-393.33673 90.350456 1.5251615 0
-423.41916 50.119816 1.6313592 0
-446.16785 50.824833 1.6567103 0
-437.43985 51.026962 1.6383481 0
-413.44342 52.008129 1.6438454 0
-409.75949 52.985504 1.6596898 0
-390.62878 53.303482 1.6942595 0
-372.88751 53.306541 1.6723602 0
-373.05164 53.471333 1.6130643 0
-369.54315 53.825748 1.6028523 0
-429.35477 54.056908 1.6077951 0
-429.72726 54.104164 1.6423162 0
-429.30923 54.153412 1.681165 0
-419.9241 56.056973 1.6510364 0
-419.84518 56.048336 1.6024324 0
-420.15814 56.136677 1.6944854 0
-419.76849 56.152309 1.6224099 0
-443.71088 58.183392 1.6282593 0
-443.61984 58.145721 1.6320552 0
-443.42627 58.107788 1.629967 0
-443.13516 58.197525 1.6129003 0
-443.75021 58.322201 1.6394056 0
-443.77197 58.436035 1.6269174 0
-398.63348 59.140091 1.6454352 0
-414.43326 59.455486 1.6055607 0
-394.51163 60.293663 1.6682813 0
-430.89551 62.082199 1.6268598 0
-431.05658 62.153778 1.6607982 0
-353.39288 65.87252 1.6657709 0
-367.68835 66.993378 1.6527094 0
-440.70413 68.638313 1.6130502 0
-440.3952 68.623688 1.6146846 0
-404.48883 69.171097 1.6989664 0
-404.29355 69.124237 1.6410559 0
-395.46384 86.288147 1.6222545 0
-447.57193 50.027069 1.7809633 0
-447.92746 50.130131 1.7965152 0
-437.6011 51.13258 1.7523223 0
-389.3298 52.20295 1.7843758 0
-409.7464 52.957405 1.7017579 0
-390.72913 53.291622 1.7551233 0
-390.5708 53.284336 1.761719 0
-429.25388 53.765324 1.7972772 0
-429.7948 54.017529 1.7723505 0
-445.46729 54.682991 1.7008377 0
-359.48926 54.77916 1.7253399 0
-359.38641 54.820053 1.7271044 0
-361.78488 55.167507 1.703585 0
-382.85608 56.360329 1.7958412 0
-439.85962 56.885269 1.7580397 0
-443.27164 58.178059 1.7516569 0
-414.27774 59.400902 1.7038965 0
-402.19788 61.0723 1.7995081 0
-383.44757 61.759449 1.7453954 0
-448.03354 62.532742 1.760061 0
-376.36499 67.49926 1.7378122 0
-376.28604 67.437851 1.7890859 0
-371.8125 70.230095 1.7131215 0
-437.47025 82.053986 1.7194862 0
-444.32648 87.245323 1.7842839 0
-447.49609 50.05072 1.8692549 0
-448.17929 50.194698 1.8387016 0
-448.00739 50.434071 1.8456382 0
-437.48184 51.062756 1.8161745 0
-423.90179 51.479282 1.8137609 0
-432.95322 51.692787 1.8128986 0
-432.92838 51.740635 1.8806471 0
-368.4071 51.731274 1.8333467 0
-389.76151 52.155781 1.8601671 0
-389.45099 52.187855 1.8691251 0
-389.57828 52.23222 1.8786724 0
-390.72513 53.371136 1.8907201 0
-429.03928 53.475235 1.8179716 0
