# .PCD v0.7 - Point Cloud Data file format
VERSION 0.7
FIELDS x y z intensity
SIZE 4 4 4 4
TYPE F F F F
COUNT 1 1 1 1
WIDTH 1420
HEIGHT 1
VIEWPOINT 0 0 0 1 0 0 0
POINTS 1420
DATA ascii
-476.88174 58.187191 -3.9166441 0
-455.86993 58.193668 -3.978611 0
-476.58902 58.267853 -3.9595044 0
-476.83347 58.31115 -3.911912 0
-475.3494 58.383137 -3.9080174 0
-474.63342 58.670368 -3.9456894 0
-472.27002 58.758266 -3.926409 0
-472.22192 58.886845 -3.9716811 0
-471.62964 58.880138 -3.9204569 0
-475.89532 59.074127 -3.9240575 0
-474.70975 59.170204 -3.9289997 0
-472.95312 59.168198 -3.9511583 0
-473.93915 59.322952 -3.9914315 0
-473.27563 59.524658 -3.9023871 0
-474.17764 59.627537 -3.9961917 0
-473.19882 59.763256 -3.97909 0
-453.67917 59.745663 -3.9848499 0
-474.82187 59.94125 -3.9591076 0
-470.9873 60.188835 -3.9348772 0
-471.2128 60.34515 -3.9027758 0
-463.03854 60.638348 -3.979342 0
-466.4277 60.717754 -3.9510114 0
-466.27826 60.880356 -3.9890261 0
-466.87592 60.919128 -3.9559305 0
-455.63748 60.977013 -3.9955084 0
-474.97003 61.067642 -3.9048891 0
-473.99713 61.04475 -3.9100487 0
-474.16232 61.165462 -3.9144449 0
-465.68396 61.1544 -3.9589086 0
-458.90277 61.266026 -3.9996049 0
-458.92929 61.389938 -3.9764168 0
-458.8353 61.351936 -3.9743927 0
-458.65048 61.33604 -3.9691565 0
-453.8096 61.333904 -3.9845397 0
-465.19037 61.475273 -3.9169228 0
-453.04294 61.402592 -3.9922662 0
-463.72794 61.515388 -3.9942877 0
-459.01001 61.532547 -3.9758489 0
-453.71609 61.552769 -3.9458511 0
-464.43683 61.635609 -3.901835 0
-450.58832 61.639038 -3.9887877 0
-458.15665 61.795788 -3.9638839 0
-459.78281 61.872391 -3.9464414 0
-459.50702 61.937088 -3.9356201 0
-452.63684 61.994007 -3.9162905 0
-450.12274 61.952885 -3.9169097 0
-461.25916 62.095181 -3.9238925 0
-451.74567 62.008324 -3.927295 0
-451.1749 62.158936 -3.9395287 0
-467.10132 62.233025 -3.9723504 0
-461.92151 62.48539 -3.9287231 0
-459.71237 62.445404 -3.925622 0
-462.03119 62.659737 -3.9053354 0
-486.20724 50.166813 -3.8731756 0
-480.65323 50.485172 -3.8078392 0
-486.41113 50.659157 -3.8166831 0
-486.09769 50.888908 -3.8664896 0
-485.814 51.409286 -3.8609295 0
-486.35822 51.523624 -3.8013489 0
-485.55582 51.502579 -3.8438067 0
-485.11807 52.049709 -3.8300717 0
-485.22794 52.177452 -3.8054647 0
-473.06235 52.646278 -3.8413334 0
-484.34067 53.342449 -3.8043764 0
-484.24368 53.559074 -3.8015704 0
-483.14313 53.651928 -3.8602123 0
-480.20959 54.074669 -3.8853133 0
-480.12039 54.07539 -3.8206677 0
-480.03949 54.07732 -3.8171582 0
-481.68433 54.159878 -3.8254688 0
-481.23822 54.121536 -3.8428557 0
-480.35907 54.109371 -3.8308287 0
-477.79004 54.156025 -3.8484416 0
-477.09409 54.132011 -3.8445446 0
-482.65802 54.273624 -3.8430121 0
-478.5592 54.240021 -3.8466883 0
-478.25867 54.238777 -3.8429344 0
-477.30722 54.259396 -3.868777 0
-453.57074 54.721867 -3.8260148 0
-465.81104 55.308353 -3.8997424 0
-476.59396 55.990116 -3.8043857 0
-471.30725 56.215935 -3.8114781 0
-456.63895 57.096413 -3.8334196 0
-456.33508 57.053074 -3.8339653 0
-456.87753 57.191154 -3.8904088 0
-469.32852 57.265854 -3.8289814 0
-475.89902 57.408962 -3.8478465 0
-455.95361 57.65707 -3.8445406 0
-471.7894 57.821735 -3.8801341 0
-455.96146 57.86694 -3.851661 0
-477.82611 58.447792 -3.8356235 0
-477.5441 58.792286 -3.8694453 0
-476.83505 58.993298 -3.8566847 0
-472.57947 58.994343 -3.8675401 0
-477.26483 59.54306 -3.8420751 0
-476.66257 59.522987 -3.8615251 0
-473.27731 59.599419 -3.8992949 0
-473.20715 59.679173 -3.8958006 0
-477.08853 59.721752 -3.8337152 0
-476.16196 59.772011 -3.8523536 0
-457.69156 59.988918 -3.8425415 0
-470.69879 60.031025 -3.8396373 0
-460.90692 60.019493 -3.8119683 0
-475.56247 60.199104 -3.8396719 0
-461.11981 60.278873 -3.8371427 0
-475.67996 60.342899 -3.838649 0
-471.09634 60.335812 -3.851675 0
-460.97711 60.34605 -3.8513746 0
-476.76361 60.443489 -3.8064654 0
-470.54068 60.429497 -3.899019 0
-472.8064 60.724663 -3.8249817 0
-474.65164 60.861664 -3.8594241 0
-473.98767 60.875717 -3.8304548 0
-474.58914 60.953289 -3.8540509 0
-455.27234 60.976414 -3.8016539 0
-474.91443 61.04739 -3.811893 0
-474.49438 61.037216 -3.8494413 0
-454.93533 61.109379 -3.8038933 0
-469.57227 61.203968 -3.8535426 0
-469.57425 61.358006 -3.8934352 0
-469.47369 61.320206 -3.8481948 0
-455.24377 61.32724 -3.8712602 0
-469.46472 61.420174 -3.8841317 0
-469.27136 61.529423 -3.8714528 0
-464.7738 61.786793 -3.8007836 0
-456.07663 61.707874 -3.8406553 0
-458.82617 61.84446 -3.8620098 0
-450.52945 62.071686 -3.8899968 0
-464.19888 62.185722 -3.8982451 0
-459.95883 62.141922 -3.8871653 0
-458.93173 62.108711 -3.8606877 0
-458.74893 62.167168 -3.8585236 0
-454.02051 62.132759 -3.8709879 0
-450.70358 62.190006 -3.8971996 0
-453.45203 62.211754 -3.8516097 0
-453.10312 62.246834 -3.8583965 0
-450.30405 62.296623 -3.8878186 0
-463.98566 62.334053 -3.8950112 0
-453.08746 62.391632 -3.8352313 0
-452.49002 62.374836 -3.8008502 0
-450.60257 62.32053 -3.8960257 0
-450.46967 62.352139 -3.8639855 0
-471.16043 62.480629 -3.8538756 0
-468.20306 62.485283 -3.8254366 0
-457.91998 62.476738 -3.8336759 0
-457.96719 62.535469 -3.8777928 0
-452.93942 62.579483 -3.8151922 0
-461.65692 62.630253 -3.899292 0
-452.83856 62.601242 -3.8116686 0
-452.52545 62.659214 -3.8726387 0
-458.87851 62.722931 -3.8847046 0
-455.65402 62.730961 -3.8216944 0
-457.49023 62.819607 -3.8293808 0
-455.2836 62.862469 -3.8092294 0
-467.83832 62.970108 -3.8434811 0
-457.96075 62.947834 -3.8348763 0
-467.8504 63.030151 -3.8438368 0
-461.08496 63.053577 -3.888931 0
-466.49576 63.146996 -3.8520923 0
-470.12915 63.202076 -3.8271911 0
-466.00424 63.322342 -3.8317883 0
-466.76837 63.447723 -3.8173902 0
-462.83624 50.035217 -3.7495952 0
-488.37463 50.160484 -3.700882 0
-487.73569 50.128036 -3.799634 0
-480.46039 50.433216 -3.7198615 0
-450.7713 50.959824 -3.7433844 0
-487.13434 51.944241 -3.70015 0
-486.78864 52.168301 -3.7408624 0
-456.04831 52.554962 -3.7597487 0
-485.82303 52.718025 -3.7189033 0
-473.05383 52.704651 -3.7171655 0
-451.92529 53.622147 -3.7609468 0
-481.44986 54.003761 -3.7593243 0
-480.69974 54.093761 -3.7048361 0
-480.35568 54.093086 -3.7754149 0
-481.89487 54.164848 -3.7705729 0
-481.03973 54.185844 -3.7485666 0
-480.81812 54.126247 -3.7420702 0
-480.74915 54.118958 -3.7333448 0
-480.3812 54.16732 -3.7692626 0
-480.23041 54.235615 -3.7194014 0
-483.05832 54.322308 -3.7361083 0
-479.30234 54.305809 -3.7784765 0
-479.19165 54.327118 -3.7811651 0
-467.1326 54.470444 -3.7696502 0
-453.45807 54.721973 -3.7840595 0
-465.74789 55.289768 -3.7129896 0
-466.25894 56.030655 -3.7406101 0
-454.44037 56.144024 -3.7725067 0
-479.31537 56.291756 -3.7005651 0
-479.2399 56.399345 -3.7491405 0
-456.25482 57.042984 -3.7606149 0
-457.15457 57.249481 -3.797435 0
-456.56683 57.203541 -3.7977781 0
-475.69992 57.516121 -3.7302606 0
-480.43454 57.682182 -3.7256625 0
-479.78384 57.744175 -3.7199039 0
-479.56256 58.228497 -3.761878 0
-478.87476 58.618935 -3.7523873 0
-450.52667 58.758263 -3.7007463 0
-478.15424 59.11692 -3.7737126 0
-478.2442 59.348946 -3.7231939 0
-477.6264 59.82114 -3.7406077 0
-476.89749 59.881504 -3.7686331 0
-471.02963 59.996552 -3.7232237 0
-470.85309 59.983929 -3.7870939 0
-476.9133 60.071037 -3.7591603 0
-477.56207 60.12804 -3.7311311 0
-461.05228 60.284012 -3.7560556 0
-477.71622 60.439774 -3.722172 0
-476.54599 60.493324 -3.7834373 0
-475.64767 60.916981 -3.7788069 0
-475.45786 60.913872 -3.7709112 0
-474.4653 61.084263 -3.7833862 0
-476.53476 61.101028 -3.702009 0
-475.71533 61.187374 -3.7554297 0
-474.47324 61.444489 -3.7969353 0
-472.73819 61.644882 -3.7976174 0
-475.06619 62.07473 -3.7326565 0
-464.09995 62.237144 -3.7368245 0
-463.97696 62.296299 -3.7299671 0
-468.34543 62.336433 -3.7930455 0
-454.47485 62.484257 -3.7656159 0
-453.43628 62.560146 -3.7283721 0
-453.10571 62.592659 -3.732769 0
-467.98758 62.647621 -3.7787685 0
-455.52075 62.612072 -3.7928915 0
-454.5217 62.685696 -3.7604077 0
-454.3382 62.628864 -3.7591579 0
-454.14676 62.651676 -3.7535884 0
-453.47852 62.681862 -3.7417047 0
-471.41565 62.742561 -3.7817976 0
-451.92148 62.766861 -3.7853072 0
-463.16895 62.807968 -3.751102 0
-463.09048 62.87759 -3.7151327 0
-472.34457 62.938389 -3.7448173 0
-463.08405 62.904633 -3.708138 0
-454.4274 62.949017 -3.7822552 0
-453.84732 62.956924 -3.7965031 0
-452.61337 62.937695 -3.7802436 0
-452.02887 62.953236 -3.714308 0
-451.49115 62.903252 -3.7793589 0
-472.27136 63.024628 -3.7410355 0
-460.67535 63.061661 -3.730109 0
-453.39862 63.047577 -3.7692754 0
-451.92136 63.014145 -3.7086687 0
-450.2576 63.0937 -3.7477572 0
-473.22592 63.170105 -3.7295408 0
-460.9584 63.127617 -3.7371516 0
-454.72253 63.12495 -3.7898052 0
-453.85999 63.150368 -3.7752407 0
-453.38113 63.191601 -3.7479343 0
-452.45251 63.11692 -3.7675228 0
-450.44153 63.139664 -3.7524078 0
-462.33374 63.294186 -3.7011547 0
-457.87247 63.263615 -3.7692842 0
-453.01392 63.230038 -3.7500868 0
-462.2912 63.323048 -3.7421601 0
-461.15137 63.448803 -3.756007 0
-465.13751 63.529129 -3.7957702 0
-460.9505 63.537247 -3.7294657 0
-460.61584 63.51947 -3.7249863 0
-460.37473 63.585148 -3.7302024 0
-466.96704 63.665726 -3.7896314 0
-466.72098 63.697918 -3.779911 0
-465.03171 63.618134 -3.7915092 0
-459.26059 63.642902 -3.7465501 0
-459.41199 63.86208 -3.7171884 0
-466.27829 63.946644 -3.7213469 0
-466.37314 64.080574 -3.7259624 0
-465.18167 64.055923 -3.7121983 0
-465.8642 64.421135 -3.7254412 0
-463.05414 65.463745 -3.7089829 0
-489.01517 50.073174 -3.6567953 0
-489.02768 50.106583 -3.6367221 0
-488.785 50.153034 -3.6890442 0
-488.98907 50.238739 -3.6191239 0
-486.67361 50.220474 -3.6439257 0
-488.58209 50.382977 -3.6143584 0
-489.09967 50.477127 -3.6079092 0
-488.77557 50.400043 -3.6367621 0
-488.74625 50.506714 -3.679744 0
-488.30869 50.747864 -3.6802912 0
-488.35504 50.957764 -3.6157615 0
-488.26471 51.043167 -3.6360497 0
-488.22159 51.126781 -3.6547806 0
-452.46423 51.217892 -3.6260574 0
-487.86227 51.318081 -3.6627183 0
-488.10522 51.426014 -3.63744 0
-488.32306 51.603138 -3.6103799 0
-487.59726 51.660461 -3.6477072 0
-487.33987 51.69545 -3.6030483 0
-488.04663 51.765354 -3.6360273 0
-487.56754 51.726841 -3.6279159 0
-485.65247 51.961189 -3.6003637 0
-487.90216 52.004898 -3.6275253 0
-487.33252 52.035507 -3.6508129 0
-486.97818 52.430298 -3.6757717 0
-486.62155 52.747017 -3.662786 0
-487.0119 52.801678 -3.6074674 0
-485.90527 53.519871 -3.6104283 0
-451.98047 53.586403 -3.6255023 0
-482.03809 54.16048 -3.6958208 0
-480.83185 54.189217 -3.6325991 0
-483.60034 54.293056 -3.6453893 0
-479.59866 54.34296 -3.6869969 0
-485.35791 54.552429 -3.6600053 0
-476.69525 56.02029 -3.6314189 0
-466.16779 56.103477 -3.6549866 0
-471.323 56.207268 -3.6376176 0
-479.50858 56.527832 -3.6655369 0
-480.54892 57.659985 -3.6114354 0
-479.5806 58.532112 -3.6088939 0
-479.1767 58.655216 -3.670527 0
-478.78571 58.995667 -3.6467259 0
-453.62448 59.710854 -3.6507959 0
-478.44424 60.031193 -3.6023097 0
-473.01352 60.00528 -3.698272 0
-470.94769 60.097702 -3.6811225 0
-470.85986 60.085522 -3.6427257 0
-472.84714 60.109211 -3.6691351 0
-460.9646 60.36869 -3.6608973 0
-477.93842 60.733231 -3.6163232 0
-477.46191 60.965088 -3.6655908 0
-477.10709 61.145668 -3.6283462 0
-474.25009 61.39547 -3.6025319 0
-461.35318 61.335888 -3.6610451 0
-476.1579 62.155674 -3.6393695 0
-476.09488 62.284691 -3.6327183 0
-475.97183 62.326992 -3.6254971 0
-476.52072 62.428795 -3.6199744 0
-475.88318 62.46862 -3.6783104 0
-452.77649 62.682278 -3.697129 0
-462.26569 63.084999 -3.697675 0
-457.89575 63.061443 -3.6988547 0
-470.84488 63.163982 -3.6891067 0
-462.36652 63.289959 -3.6573126 0
-457.94247 63.23999 -3.602344 0
-462.30423 63.35458 -3.6400349 0
-462.22839 63.399937 -3.6232774 0
-462.17471 63.351082 -3.6486189 0
-462.13202 63.457775 -3.6201177 0
-474.13989 63.685688 -3.6393533 0
-461.88791 63.628147 -3.6721447 0
-454.54843 63.715275 -3.6767609 0
-470.09073 63.87056 -3.6437931 0
-461.52179 63.852818 -3.6850147 0
-470.63293 63.962673 -3.6658344 0
-460.62976 63.968651 -3.6663234 0
-451.93048 63.92709 -3.6965313 0
-472.72592 64.008636 -3.6520207 0
-461.48404 64.009529 -3.6432106 0
-451.04074 64.069916 -3.6676154 0
-458.29724 64.259186 -3.6153748 0
-457.46152 64.301086 -3.6348963 0
-451.38538 64.417236 -3.6485281 0
-456.70236 64.701622 -3.6082969 0
-463.17075 65.38546 -3.6205578 0
-464.64465 65.468857 -3.6476994 0
-518.16028 50.078907 -3.5097139 0
-517.3432 50.09885 -3.5382812 0
-517.29852 50.242435 -3.5348685 0
-450.73999 50.973083 -3.5774393 0
-488.73846 51.09243 -3.5998454 0
-489.0903 51.21534 -3.5365665 0
-488.68735 51.260738 -3.553401 0
-488.57281 51.308006 -3.5981684 0
-488.5159 51.617641 -3.5345309 0
-488.22113 51.753613 -3.5942533 0
-488.60175 51.887691 -3.5345721 0
-488.44214 51.82629 -3.5242722 0
-487.66873 52.171944 -3.5927863 0
-488.00778 52.48708 -3.5395663 0
-487.80615 52.561687 -3.5784502 0
-473.09241 52.642357 -3.5737894 0
-460.54526 52.715042 -3.5800488 0
-487.35037 53.005451 -3.549655 0
-486.7699 53.14967 -3.5724401 0
-478.88034 53.891026 -3.5980852 0
-486.36526 54.084194 -3.566179 0
-486.22348 54.155357 -3.5631673 0
-482.81876 54.238609 -3.5246224 0
-482.70947 54.282688 -3.5202901 0
-482.5892 54.227474 -3.5226786 0
-482.4444 54.22361 -3.5213833 0
-482.20981 54.212353 -3.5193825 0
-482.18167 54.238594 -3.5148182 0
-481.60413 54.251225 -3.5125725 0
-483.83435 54.347343 -3.5222065 0
-483.66925 54.347946 -3.5159879 0
-483.35623 54.390003 -3.5367248 0
-481.67798 54.315674 -3.5016613 0
-450.73276 54.39185 -3.5568173 0
-483.84253 54.451771 -3.5520627 0
-485.48453 54.597084 -3.5963905 0
-485.61203 55.128033 -3.5912299 0
-485.24811 55.310383 -3.5711887 0
-485.11804 55.331116 -3.5496287 0
-486.0094 55.503593 -3.5077717 0
-485.53568 55.855587 -3.5028069 0
-476.48315 56.046986 -3.5526748 0
-460.10474 56.670918 -3.5457742 0
-481.4592 57.021194 -3.5382268 0
-456.11752 57.313335 -3.5963881 0
-481.2843 57.574524 -3.522131 0
-481.12122 57.922958 -3.5110779 0
-480.83218 58.303253 -3.5020947 0
-480.36078 58.571148 -3.5126073 0
-479.71378 58.565945 -3.5566146 0
-479.5567 58.885609 -3.5417058 0
-480.05597 59.070045 -3.5114186 0
-470.92484 60.062233 -3.5372579 0
-457.73886 60.022285 -3.5723109 0
-478.44406 60.206253 -3.5966806 0
-472.65448 60.362942 -3.5788181 0
-472.59805 60.44165 -3.5740695 0
-472.49435 60.449421 -3.5042751 0
-471.98407 60.404919 -3.5744956 0
-472.52664 60.520035 -3.568598 0
-471.91302 60.511459 -3.5398698 0
-478.60715 61.030983 -3.5242436 0
-478.0383 61.253983 -3.561003 0
-477.203 61.799744 -3.5979514 0
-477.67136 62.027016 -3.5130765 0
-474.80096 62.067493 -3.543391 0
-474.67136 62.060799 -3.556386 0
-474.91135 62.268452 -3.5526347 0
-476.12637 62.48616 -3.5728762 0
-475.9679 62.526142 -3.5448611 0
-471.35718 62.512753 -3.5974784 0
-471.35349 62.636215 -3.536536 0
-471.28537 62.61784 -3.5917575 0
-475.315 62.742878 -3.5256717 0
-476.17368 63.079334 -3.5173643 0
-461.98544 63.610466 -3.5519638 0
-450.54932 63.937237 -3.5901837 0
-460.28015 64.025574 -3.5046554 0
-460.19525 64.344223 -3.521337 0
-460.03604 64.52562 -3.5097632 0
-458.54294 64.741707 -3.5212009 0
-455.79092 64.741112 -3.5656602 0
-473.6586 65.39872 -3.5225797 0
-469.89267 66.845833 -3.5030284 0
-469.46051 66.909798 -3.5369511 0
-469.24576 66.939232 -3.5327644 0
-462.57785 67.18927 -3.5096924 0
-467.42581 67.386086 -3.572108 0
-468.23578 67.562424 -3.5121853 0
-468.00198 67.91378 -3.5231111 0
-467.70279 68.184059 -3.5084701 0
-516.48175 50.023624 -3.4558346 0
-515.91681 50.083534 -3.4538746 0
-514.40546 50.058296 -3.4019117 0
-513.8515 50.047131 -3.4270802 0
-486.57242 50.087456 -3.4525006 0
-517.53693 50.180275 -3.4804037 0
-516.29309 50.128857 -3.4819093 0
-514.58899 50.151951 -3.4020965 0
-519.9635 50.220402 -3.4658878 0
-517.45831 50.214218 -3.4827251 0
-517.38885 50.227619 -3.4805961 0
-516.66003 50.299438 -3.4200125 0
-516.0144 50.267052 -3.4068809 0
-520.90887 50.360271 -3.4104252 0
-518.46576 50.359383 -3.4726267 0
-517.79968 50.37722 -3.4839711 0
-517.04517 50.361805 -3.4302027 0
-516.34583 50.350323 -3.4150116 0
-515.62213 50.378853 -3.4484484 0
-518.46564 50.489429 -3.4696445 0
-517.82623 50.446659 -3.451581 0
-517.89044 50.502876 -3.4524808 0
-517.04108 50.584171 -3.436528 0
-517.93286 50.770931 -3.462194 0
-516.95148 50.759277 -3.4613714 0
-490.16235 50.772411 -3.4809303 0
-489.90546 51.270927 -3.460279 0
-452.35266 51.307995 -3.4285355 0
-488.53979 52.352322 -3.4811304 0
-488.45639 52.596863 -3.4712932 0
-488.19653 52.696747 -3.4832981 0
-460.51642 52.689442 -3.4131327 0
-488.27249 52.76696 -3.4703636 0
-488.16901 52.986591 -3.460438 0
-451.9743 53.559494 -3.4885619 0
-487.71991 53.624504 -3.4252169 0
-487.35779 53.622929 -3.4748056 0
-483.2254 54.259502 -3.4762797 0
-482.96964 54.292034 -3.4927173 0
-482.75928 54.216633 -3.4574924 0
-482.37112 54.222054 -3.4919815 0
-482.18488 54.253113 -3.4586112 0
-481.67188 54.243935 -3.4899838 0
-483.61407 54.368042 -3.4645989 0
-483.46033 54.347046 -3.4456971 0
-482.8407 54.330692 -3.476943 0
-482.39569 54.324963 -3.4220581 0
-487.07877 54.660633 -3.4120574 0
-486.90121 54.687744 -3.4139016 0
-483.94086 54.652637 -3.4162114 0
-486.401 54.804024 -3.4621809 0
-486.46783 55.157207 -3.4340107 0
-486.23993 55.156895 -3.4515681 0
-465.76212 55.302711 -3.4339225 0
-456.46255 55.33247 -3.4373715 0
-455.8186 55.388557 -3.4426649 0
-476.25937 55.740582 -3.4335015 0
-485.76175 55.909756 -3.4584057 0
-476.65411 55.91803 -3.4798641 0
-483.95364 56.146416 -3.4039721 0
-479.05066 56.152874 -3.498399 0
-454.42447 56.108738 -3.4109492 0
-454.3512 56.149612 -3.484148 0
-471.2605 56.223255 -3.4231615 0
-479.90894 56.372589 -3.4947107 0
-479.88184 56.398613 -3.4925513 0
-485.84869 56.427116 -3.4107466 0
-480.00601 56.495518 -3.492656 0
-460.01688 56.761826 -3.4920578 0
-459.94666 56.716991 -3.4955001 0
-456.68988 57.180073 -3.460273 0
-456.52591 57.162933 -3.4881556 0
-456.44687 57.120373 -3.4539158 0
-456.3866 57.169041 -3.4372997 0
-456.67282 57.238358 -3.4265804 0
-456.05093 57.254787 -3.4427323 0
-481.27014 57.729687 -3.4270413 0
-480.53976 58.389252 -3.492341 0
-479.65891 59.580006 -3.4845901 0
-457.73624 59.993446 -3.4532802 0
-479.42398 61.068195 -3.4392374 0
-474.87198 62.255905 -3.4489987 0
-474.62744 62.291344 -3.4419308 0
-475.14191 62.589878 -3.4877279 0
-475.05386 62.643719 -3.4368963 0
-475.39661 63.011345 -3.4992337 0
-451.91864 63.126263 -3.4090333 0
-477.00894 63.297581 -3.450644 0
-476.85596 63.361645 -3.4654658 0
-475.85361 63.371872 -3.4540648 0
-457.98425 63.531311 -3.4950688 0
-476.31625 63.93288 -3.4612606 0
-474.21521 64.028236 -3.4476931 0
-460.19669 64.346436 -3.4944258 0
-459.81415 64.609085 -3.4804754 0
-455.90561 64.90715 -3.4136615 0
-455.58493 64.909523 -3.4081707 0
-457.14417 65.04673 -3.4116578 0
-456.80936 65.005852 -3.4053204 0
-453.80228 65.037239 -3.4171262 0
-472.99246 65.263809 -3.4956014 0
-450.16302 65.3797 -3.4877858 0
-464.8049 65.725906 -3.4021571 0
-473.80026 65.910172 -3.4776382 0
-473.5733 66.145981 -3.4671955 0
-473.32932 66.189713 -3.4555149 0
-456.89279 66.190697 -3.4550133 0
-471.28387 66.632164 -3.4181771 0
-471.14587 66.624573 -3.4648337 0
-472.8038 66.773117 -3.4320407 0
-472.31546 66.791496 -3.4191301 0
-463.57977 66.795143 -3.4124854 0
-463.47913 66.83358 -3.4091573 0
-462.61676 66.990952 -3.40979 0
-462.31952 67.33786 -3.40014 0
-468.00967 67.95388 -3.4982338 0
-468.57602 68.020134 -3.4082067 0
-468.46594 68.026741 -3.405812 0
-465.99548 68.097939 -3.4443083 0
-467.758 68.134964 -3.4322324 0
-521.94562 50.085533 -3.3440151 0
-515.32892 50.022354 -3.3696005 0
-513.3172 50.012333 -3.3364248 0
-512.6156 50.050919 -3.3532336 0
-510.86679 50.005909 -3.3351555 0
-509.62735 50.092983 -3.3208888 0
-521.68207 50.122547 -3.3436484 0
-521.36108 50.117683 -3.3520384 0
-514.27979 50.138645 -3.3679514 0
-514.46118 50.242722 -3.3955843 0
-513.0788 50.235451 -3.3509066 0
-492.97971 50.269096 -3.3057668 0
-515.58997 50.394794 -3.3959024 0
-513.88501 50.33287 -3.303869 0
-513.35663 50.339104 -3.396143 0
-513.01251 50.395237 -3.3874686 0
-513.90387 50.420647 -3.3328359 0
-513.22455 50.486633 -3.3431716 0
-520.78021 50.531448 -3.3446136 0
-520.63605 50.550705 -3.3416834 0
-520.50793 50.508812 -3.3402691 0
-519.03351 50.513245 -3.3242149 0
-515.9303 50.534973 -3.3990462 0
-515.74835 50.534866 -3.3890777 0
-512.95435 50.502655 -3.3308501 0
-520.55902 50.600719 -3.3393223 0
-519.15009 50.611073 -3.3293116 0
-519.07581 50.625847 -3.3277023 0
-515.01215 50.616249 -3.3009543 0
-492.26562 50.610455 -3.301122 0
-492.1669 50.628956 -3.3016608 0
-519.53308 50.716797 -3.3339384 0
-516.68719 50.779823 -3.3624194 0
-521.15881 50.887054 -3.3583901 0
-514.89398 50.821594 -3.3752556 0
-491.4718 50.80872 -3.3743026 0
-516.89154 50.921829 -3.3698575 0
-450.76627 50.982773 -3.3398335 0
-491.14471 51.065529 -3.3588817 0
-516.133 51.184872 -3.3524194 0
-517.0661 51.201187 -3.32567 0
-516.9967 51.215736 -3.3291569 0
-455.75775 52.429024 -3.3176994 0
-455.69843 52.464039 -3.3432908 0
-489.47519 52.583973 -3.3815448 0
-489.25604 53.055183 -3.3595567 0
-452.11292 53.609371 -3.3234668 0
-482.63184 54.281616 -3.3379781 0
-483.69821 54.383904 -3.3059025 0
-482.64694 54.387589 -3.3550301 0
-450.78534 54.371307 -3.3671985 0
-483.8071 54.413799 -3.3408682 0
-484.43988 54.82317 -3.317286 0
-481.61383 55.085037 -3.3445065 0
-486.30176 55.88026 -3.3564224 0
-476.73871 55.965794 -3.3927488 0
-476.64322 55.987194 -3.3235919 0
-476.51758 55.946297 -3.3997433 0
-479.22156 56.23381 -3.3997409 0
-471.19025 56.241096 -3.3614812 0
-485.92484 56.501183 -3.3158758 0
-459.93036 56.737915 -3.3314238 0
-484.21524 56.827114 -3.3055422 0
-485.75732 56.972843 -3.3056827 0
-456.50183 57.17379 -3.3368161 0
-456.4313 57.132183 -3.3772719 0
-475.59933 57.584988 -3.3791332 0
-456.79654 57.600815 -3.3409991 0
-483.34207 58.035568 -3.3522296 0
-484.08459 58.185688 -3.3478031 0
-483.06485 58.111198 -3.3907151 0
-482.62775 58.109009 -3.3500886 0
-482.54117 58.145691 -3.3464386 0
-482.05942 58.167122 -3.3307714 0
-481.89816 58.11615 -3.3691001 0
-481.5332 58.232113 -3.3596122 0
-480.64923 58.390213 -3.3985097 0
-453.60007 59.760162 -3.3122318 0
-470.68155 59.968021 -3.3453143 0
-460.98508 60.371552 -3.3249311 0
-479.86502 60.949825 -3.3932092 0
-455.07623 61.860359 -3.3536172 0
-478.82526 62.06115 -3.3435535 0
-478.50214 62.244221 -3.3773651 0
-479.03799 62.364094 -3.3109472 0
-471.0209 62.598404 -3.3936718 0
-478.20428 62.939411 -3.3495002 0
-477.87827 63.886223 -3.3143554 0
-460.14569 64.003761 -3.3747113 0
-455.52579 64.48243 -3.3900993 0
-460.33917 64.519669 -3.3277943 0
-459.00586 64.915924 -3.3395412 0
-455.11502 65.069038 -3.3775048 0
-458.74997 65.116096 -3.3427715 0
-474.18304 65.220436 -3.3669629 0
-464.71494 65.806084 -3.3973746 0
-458.25473 66.021362 -3.3072805 0
-474.57574 66.273048 -3.356343 0
-464.19028 66.282051 -3.3643162 0
-458.11771 66.229248 -3.3185632 0
-458.70142 66.660881 -3.3347032 0
-473.45309 66.938202 -3.3096955 0
-473.81818 67.114662 -3.3166511 0
-460.58466 67.151299 -3.3494713 0
-471.97583 67.331863 -3.3886938 0
-471.31622 67.444824 -3.366473 0
-471.36499 67.523361 -3.3525188 0
-470.29642 67.905312 -3.3138938 0
-469.2757 67.930145 -3.300391 0
-470.48282 68.074677 -3.3263969 0
-468.63315 68.18782 -3.3748507 0
-471.63281 68.238724 -3.3053858 0
-513.31781 50.008244 -3.282932 0
-511.02661 50.006569 -3.2730496 0
-486.50494 50.061188 -3.2640471 0
-523.04303 50.10767 -3.2691689 0
-510.43457 50.188747 -3.2719371 0
-508.16943 50.126198 -3.2057562 0
-512.00562 50.278076 -3.2890677 0
-511.38455 50.279411 -3.2809525 0
-510.9169 50.230762 -3.2742903 0
-510.71988 50.292767 -3.2642767 0
-510.63791 50.266899 -3.2660313 0
-510.1449 50.289589 -3.2060778 0
-509.1954 50.280567 -3.2676268 0
-508.98303 50.268551 -3.2257125 0
-513.98279 50.317123 -3.2979674 0
-509.89694 50.387569 -3.2105553 0
-509.6662 50.334229 -3.2226129 0
-509.46249 50.310219 -3.2494514 0
-509.08176 50.359764 -3.2579756 0
-494.35437 50.364468 -3.2459099 0
-523.56158 50.420601 -3.2173884 0
-511.84778 50.440899 -3.2815757 0
-510.3949 50.432896 -3.2161574 0
-509.18451 50.486679 -3.2282016 0
-494.49857 50.43132 -3.2351828 0
-493.1246 50.464699 -3.2901273 0
-523.46094 50.57114 -3.2089872 0
-513.54858 50.533241 -3.2859435 0
-513.15247 50.522743 -3.287951 0
-510.91275 50.548122 -3.2038648 0
-510.78137 50.525688 -3.2327955 0
-494.12195 50.508648 -3.2319555 0
-492.87585 50.542145 -3.2806699 0
-518.18158 50.641499 -3.2064347 0
-513.48865 50.618492 -3.2546682 0
-513.03394 50.690422 -3.2634964 0
-512.95123 50.653915 -3.2787771 0
-510.84961 50.610031 -3.2033715 0
-523.42242 50.732704 -3.244559 0
-512.18842 50.786263 -3.2614834 0
-511.44324 50.739372 -3.2309725 0
-493.74374 50.786057 -3.2199869 0
-493.2836 50.797421 -3.2355807 0
-489.15048 50.763561 -3.2650955 0
-512.60785 50.857025 -3.2792652 0
-512.20178 50.852806 -3.2288542 0
-511.65622 50.822662 -3.2195714 0
-512.68451 50.909637 -3.2080376 0
-512.07532 50.925751 -3.2221508 0
-511.86337 50.975925 -3.2126424 0
-494.24527 50.905762 -3.2033186 0
-523.06091 51.071384 -3.2089841 0
-514.57635 51.024921 -3.2880054 0
-512.08026 51.144352 -3.2050736 0
-493.10873 51.219425 -3.2292795 0
-517.11786 51.366142 -3.2725172 0
-492.34674 51.332844 -3.218183 0
-492.10138 51.328983 -3.2145989 0
-521.11511 51.435795 -3.2341497 0
-516.01154 51.458294 -3.2610419 0
-515.39032 51.401398 -3.2542839 0
-512.84412 51.456146 -3.2272627 0
-516.42993 51.58115 -3.2658384 0
-518.38568 51.632137 -3.2445979 0
-492.55515 51.698524 -3.2045448 0
-492.34412 51.629642 -3.2322288 0
-518.35779 51.74136 -3.2403717 0
-515.84106 51.835926 -3.2226441 0
-520.28363 51.937611 -3.2074552 0
-516.89642 51.916588 -3.2547393 0
-515.43701 51.909405 -3.206749 0
-491.50311 51.952488 -3.231329 0
-485.65524 51.960499 -3.2711174 0
-491.65579 52.009979 -3.2069602 0
-490.46082 52.708549 -3.2826488 0
-490.33746 53.020481 -3.268266 0
-489.06641 53.586418 -3.2700393 0
-470.88211 54.200397 -3.2444398 0
-483.86801 54.441868 -3.2143219 0
-483.71274 54.489296 -3.2337942 0
-483.58966 54.476818 -3.2463989 0
-483.49667 54.443272 -3.2781806 0
-483.39255 54.411423 -3.2951941 0
-482.74268 54.484463 -3.290333 0
-488.94193 54.526314 -3.20207 0
-483.24158 54.656742 -3.2255301 0
-483.21469 54.748108 -3.2209888 0
-488.19785 55.082783 -3.2728474 0
-465.698 55.286259 -3.2245321 0
-455.83435 55.391579 -3.2179048 0
-465.68509 55.469494 -3.2898874 0
-488.0946 55.515629 -3.2951472 0
-476.59763 55.893166 -3.2143829 0
-476.71649 55.969765 -3.2121868 0
-476.61334 55.985199 -3.2147362 0
-487.19482 56.021111 -3.2904508 0
-454.34024 56.085598 -3.2329788 0
-465.90741 56.184563 -3.2173481 0
-486.69742 56.281296 -3.2943358 0
-471.13324 56.247459 -3.2162035 0
-466.05096 56.234417 -3.2452459 0
-487.28723 56.484661 -3.2458203 0
-486.97961 56.405205 -3.2766693 0
-487.10663 56.95673 -3.2280178 0
-456.74219 57.260555 -3.2772484 0
-486.73074 57.435032 -3.2043092 0
-485.4921 57.459595 -3.2675388 0
-475.55615 57.555576 -3.2255666 0
-482.16464 58.073109 -3.2134197 0
-482.07037 58.079227 -3.2030914 0
-481.90533 58.111839 -3.214812 0
-481.72644 58.134193 -3.2194719 0
-482.49332 58.767727 -3.2910407 0
-480.41748 59.001591 -3.2773502 0
-482.74811 59.630287 -3.2145483 0
-481.14627 59.904743 -3.2845678 0
-480.26624 61.999985 -3.2464077 0
-479.832 61.948559 -3.268137 0
-479.78033 62.396408 -3.2281089 0
-471.17743 62.673115 -3.2816334 0
-451.72296 63.176334 -3.2729518 0
-459.91739 63.945873 -3.2233076 0
-477.65091 64.270073 -3.2586055 0
-477.02859 64.398796 -3.2865069 0
-476.75961 64.441582 -3.2214081 0
-477.29266 64.755447 -3.2718794 0
-457.25916 64.717072 -3.2474337 0
-477.67044 64.85009 -3.2022834 0
-457.5881 65.751625 -3.2531269 0
-458.31775 66.148712 -3.288152 0
-458.00598 66.24678 -3.2815101 0
-451.48639 67.089462 -3.2290387 0
-473.3205 67.329201 -3.2974927 0
-472.92981 67.395699 -3.2862933 0
-474.60529 67.548584 -3.2372673 0
-470.47394 67.853363 -3.2781403 0
-471.30231 68.131233 -3.2217407 0
-470.23499 68.192024 -3.2555418 0
-470.02023 68.197395 -3.2451377 0
-469.73111 68.135162 -3.2583671 0
-469.42606 68.172913 -3.2745719 0
-507.74097 50.099327 -3.1993663 0
-498.16306 50.078892 -3.1087353 0
-495.54926 50.027222 -3.1792374 0
-457.45251 50.067234 -3.1449831 0
-506.87735 50.184162 -3.1591494 0
-497.82034 50.191654 -3.137691 0
-517.29175 50.240292 -3.1170673 0
-508.12701 50.222672 -3.1468587 0
-507.88263 50.249096 -3.1359217 0
-506.9447 50.262157 -3.1601043 0
-506.80923 50.246246 -3.1586046 0
-507.84915 50.330322 -3.1274459 0
-507.01099 50.305176 -3.1609495 0
-507.18793 50.452343 -3.1005771 0
-497.57248 50.407642 -3.1346891 0
-523.74036 50.578304 -3.1297238 0
-518.05109 50.537743 -3.1048119 0
-512.98395 50.67836 -3.1564448 0
-510.63019 50.64016 -3.1580746 0
-509.70288 50.660324 -3.1930404 0
-509.50989 50.613911 -3.1797242 0
-496.24677 50.692135 -3.1596112 0
-495.3555 50.624157 -3.1546488 0
-512.70935 50.709053 -3.1694491 0
-509.83545 50.729717 -3.198467 0
-508.41031 50.783024 -3.1386757 0
-523.7782 50.85178 -3.195313 0
-509.21744 50.839508 -3.174669 0
-493.7818 50.894512 -3.1841183 0
-523.16705 50.943298 -3.1867197 0
-507.97635 50.913933 -3.1229618 0
-507.77682 50.907413 -3.1140156 0
-495.1377 50.903095 -3.1601644 0
-509.58234 51.001461 -3.1173232 0
-450.76669 51.0588 -3.1676753 0
-496.2323 51.170593 -3.1367533 0
-493.72162 51.147083 -3.1795664 0
-493.74963 51.261421 -3.1448627 0
-493.6369 51.260735 -3.1741793 0
-452.39017 51.206676 -3.1281614 0
-518.92407 51.404633 -3.1329038 0
-493.11292 51.408085 -3.1839793 0
-520.29163 51.586979 -3.1766405 0
-493.54651 51.561226 -3.1546988 0
-518.74512 51.632755 -3.1427631 0
-493.3302 51.680618 -3.129426 0
-493.24503 51.712635 -3.140152 0
-493.14294 51.883018 -3.1323743 0
-492.90781 51.818737 -3.1589341 0
-492.39288 51.896191 -3.1957572 0
-510.82104 51.929245 -3.1024997 0
-493.24573 51.986061 -3.1266489 0
-515.65613 52.130661 -3.1634872 0
-493.02234 52.291744 -3.115375 0
-515.67505 52.346413 -3.1611042 0
-492.75836 52.322815 -3.103025 0
-520.31598 52.413906 -3.1819735 0
-491.46741 52.58461 -3.1510458 0
-473.12817 52.583141 -3.12413 0
-472.92618 52.579838 -3.1163549 0
-455.80276 52.526035 -3.1635969 0
-519.80933 52.641014 -3.1979558 0
-514.00336 52.890129 -3.1359468 0
-522.02045 53.228161 -3.1315463 0
-452.22833 53.55402 -3.1619356 0
-489.36703 54.253571 -3.1830797 0
-450.8931 54.348251 -3.1997998 0
-467.12744 54.44836 -3.1142113 0
-450.73343 54.426048 -3.1715031 0
-483.09909 54.577572 -3.1741841 0
-488.98654 54.613598 -3.1825438 0
-483.50977 54.768051 -3.1824791 0
-453.5629 54.764854 -3.1539543 0
-481.48242 55.14724 -3.1920328 0
-456.41214 55.279266 -3.1636617 0
-455.90994 55.365715 -3.1770129 0
-455.87128 55.439583 -3.1401758 0
-476.70551 55.888813 -3.1386535 0
-476.57764 55.941875 -3.1085517 0
-454.36075 56.139828 -3.1451309 0
-488.99304 56.551811 -3.1060481 0
-460.11478 56.785053 -3.1179752 0
-459.85504 56.761738 -3.1716678 0
-459.79562 56.725769 -3.1440475 0
-456.51654 57.154938 -3.157901 0
-456.44766 57.166607 -3.124227 0
-456.74063 57.207199 -3.1624303 0
-456.45242 57.203476 -3.1480019 0
-475.58206 57.537804 -3.1463192 0
-456.1167 57.573017 -3.1017945 0
-481.05823 58.069019 -3.1819408 0
-481.47028 58.226925 -3.1942949 0
-481.16788 58.354065 -3.1823251 0
-478.79364 58.498348 -3.1101701 0
-485.33569 59.104187 -3.1510746 0
-480.35583 59.652225 -3.1268125 0
-478.77136 60.56004 -3.1225715 0
-479.30112 61.045872 -3.1516953 0
-479.05307 61.397617 -3.1540513 0
-478.19345 61.706474 -3.1117496 0
-478.69131 62.084831 -3.1642148 0
-480.85031 62.101242 -3.1525378 0
-471.18213 62.558891 -3.1829121 0
-478.29034 62.631378 -3.1429214 0
-478.1456 62.641922 -3.1447818 0
-478.05832 62.951996 -3.1275873 0
-474.38388 63.983871 -3.1401844 0
-466.27866 63.977077 -3.1610265 0
-479.11411 64.056084 -3.1062131 0
-477.95013 64.683037 -3.1481028 0
-477.02512 64.855797 -3.1240242 0
-454.35828 65.937996 -3.1698406 0
-453.78802 66.352638 -3.1581147 0
-458.01416 66.827713 -3.1162021 0
-475.98798 66.944389 -3.1390305 0
-450.12244 66.996391 -3.1715934 0
-475.7966 67.092575 -3.1312726 0
-475.88245 67.393486 -3.1500793 0
-461.58548 67.34922 -3.191092 0
-450.5296 67.537567 -3.1425011 0
-452.32199 67.677513 -3.1793742 0
-451.58063 67.662415 -3.1672795 0
-476.17325 67.744568 -3.1104257 0
-475.79968 67.780937 -3.1393609 0
-475.69098 67.746613 -3.113184 0
-453.58643 67.803009 -3.1814711 0
-453.89532 67.905846 -3.1791461 0
-453.68542 67.98558 -3.1394508 0
-451.91119 68.07164 -3.1531713 0
-455.9476 68.265945 -3.1903985 0
-471.04895 68.501991 -3.1684978 0
-472.27435 69.040428 -3.1431448 0
-471.84674 69.140816 -3.1264439 0
-460.73764 69.327843 -3.1403396 0
-460.34113 69.40168 -3.1977332 0
-469.70993 69.770195 -3.188545 0
-457.35043 69.809914 -3.1578124 0
-465.88748 72.045387 -3.1464126 0
-517.04395 50.026058 -3.090153 0
-516.91577 50.057022 -3.090451 0
-524.64099 50.186649 -3.0777569 0
-498.12881 50.156506 -3.0905027 0
-498.44742 50.328323 -3.0083456 0
-498.18082 50.351677 -3.0695255 0
-501.52228 50.424232 -3.0149536 0
-506.52237 50.540203 -3.0858703 0
-497.63712 50.535667 -3.0757167 0
-505.15063 50.615829 -3.00157 0
-498.11591 50.605888 -3.0333524 0
-497.8931 50.675735 -3.0263033 0
-504.95038 50.726238 -3.0108523 0
-489.32724 50.824272 -3.0085621 0
-489.21658 50.844818 -3.0299006 0
-507.8259 50.990448 -3.0446134 0
-497.29224 50.953953 -3.0594952 0
-489.3168 50.930023 -3.097971 0
-523.97266 51.00428 -3.0444422 0
-506.06354 51.027462 -3.0147967 0
-495.35226 51.03466 -3.0691855 0
-524.21906 51.173168 -3.0574794 0
-506.05585 51.136585 -3.0491912 0
-497.28931 51.128151 -3.0002837 0
-452.4581 51.179199 -3.0762346 0
-508.53958 51.207424 -3.089417 0
-505.60785 51.247086 -3.0279682 0
-495.65994 51.249714 -3.0736063 0
-452.53424 51.216846 -3.0782759 0
-452.31677 51.225609 -3.0409005 0
-524.24097 51.372978 -3.0503693 0
-509.85532 51.35387 -3.0733058 0
-506.29251 51.384388 -3.0578847 0
-509.96042 51.423912 -3.0763173 0
-507.9498 51.55899 -3.0482941 0
-505.24759 51.560604 -3.0187995 0
-521.73065 51.63982 -3.0319681 0
-496.59805 51.630856 -3.0542154 0
-524.09521 51.763947 -3.0491915 0
-507.36002 51.774712 -3.0601273 0
-496.20538 51.713078 -3.0503967 0
-494.07544 51.788982 -3.0618708 0
-510.54575 51.839149 -3.0924509 0
-509.67975 51.898739 -3.0530903 0
-509.27164 51.823757 -3.0070081 0
-509.27759 51.972473 -3.0034766 0
-493.69986 51.970264 -3.0858352 0
-510.68723 52.009941 -3.0357089 0
-509.52228 52.028873 -3.0056663 0
-495.50467 52.024967 -3.0440898 0
-495.28113 52.049461 -3.0728953 0
-524.29974 52.216759 -3.0352244 0
-511.26224 52.260426 -3.0462959 0
-493.39157 52.342522 -3.0624292 0
-493.24561 52.327152 -3.0918643 0
-492.81729 52.35931 -3.0948169 0
-493.74155 52.457554 -3.0172768 0
-493.13861 52.449776 -3.0697103 0
-492.61963 52.438286 -3.0878706 0
-515.96857 52.585663 -3.0555048 0
-494.35538 52.514103 -3.0120997 0
-516.48132 52.614845 -3.0971665 0
-493.54419 52.60236 -3.04901 0
-492.75949 52.694557 -3.0801425 0
-472.92953 52.702377 -3.0374455 0
-460.58826 52.704239 -3.0047903 0
-493.26358 52.835018 -3.0236487 0
-492.47473 52.882778 -3.0742755 0
-515.14069 52.988808 -3.065958 0
-514.89453 52.969372 -3.0969241 0
-523.31006 53.071106 -3.094142 0
-514.92181 53.040813 -3.0327566 0
-511.23697 53.037628 -3.0101666 0
-492.92984 53.001236 -3.0431495 0
-522.9671 53.119259 -3.04442 0
-515.64911 53.166588 -3.0631733 0
-515.57373 53.106846 -3.049546 0
-515.49829 53.110016 -3.0477219 0
-514.56561 53.197239 -3.0230777 0
-492.83234 53.171608 -3.0296924 0
-492.0766 53.157024 -3.0587759 0
-514.1925 53.295811 -3.0430946 0
-514.06714 53.22496 -3.0107999 0
-513.23907 53.224861 -3.0352793 0
-492.56464 53.207802 -3.0360317 0
-492.41919 53.257404 -3.0283318 0
-523.30682 53.317047 -3.0178897 0
-522.57208 53.373047 -3.0280178 0
-513.53851 53.363338 -3.027384 0
-513.09375 53.360943 -3.0566802 0
-492.30466 53.376244 -3.05072 0
-492.19241 53.31506 -3.0487196 0
-492.02695 53.337742 -3.0899835 0
-523.17596 53.419537 -3.0163541 0
-519.11115 53.496677 -3.0238225 0
-491.77142 53.467285 -3.0630689 0
-522.43896 53.556198 -3.0266123 0
-492.40143 53.587181 -3.0170047 0
-517.24237 53.632782 -3.0011189 0
-513.55176 53.646717 -3.0364256 0
-517.15137 53.71627 -3.004492 0
-492.05365 53.935616 -3.0016851 0
-491.5191 54.165817 -3.0585122 0
-491.72678 54.271587 -3.0119677 0
-491.33856 54.384903 -3.0540805 0
-450.67548 54.349602 -3.0741832 0
-450.70639 54.428425 -3.082834 0
-484.15546 54.669643 -3.0653007 0
-490.49945 54.772202 -3.0478721 0
-490.3042 54.845184 -3.0721641 0
-453.55963 54.806496 -3.0729427 0
-490.25754 54.91877 -3.0460851 0
-481.53494 55.075268 -3.046762 0
-489.84991 55.272488 -3.0511541 0
-490.06134 55.373604 -3.041301 0
-455.784 55.348007 -3.0582533 0
-476.48737 55.842903 -3.0427084 0
-489.84766 56.107521 -3.0286422 0
-466.05145 56.254463 -3.0825891 0
-489.64868 56.5257 -3.013236 0
-488.88864 57.094193 -3.0827432 0
-456.48929 57.131557 -3.011229 0
-456.67932 57.20475 -3.0146418 0
-456.29358 57.268543 -3.0680768 0
-456.81686 57.339138 -3.0025408 0
-456.6651 57.360695 -3.0849359 0
-480.86755 57.481247 -3.0278044 0
-475.6149 57.449078 -3.0227761 0
-475.53552 57.468155 -3.0137415 0
-456.08908 57.406872 -3.0866294 0
-488.81146 57.537514 -3.0019336 0
-456.65042 57.766262 -3.0005188 0
-481.79163 58.180904 -3.0077434 0
-482.03391 58.212708 -3.0200987 0
-481.9249 58.202995 -3.0495656 0
-482.15488 58.540474 -3.018857 0
-485.97147 58.95327 -3.0751226 0
-484.84357 59.40369 -3.0621123 0
-462.09802 59.460354 -3.0855832 0
-461.0788 60.43745 -3.0270905 0
-461.56064 61.252029 -3.0140944 0
-483.33105 61.347401 -3.0491359 0
-455.02924 61.831078 -3.027225 0
-451.24063 62.565304 -3.0573964 0
-471.24588 62.678867 -3.0401723 0
-451.63742 63.052639 -3.054939 0
-477.93613 63.195171 -3.0730176 0
-479.02637 64.350906 -3.0955029 0
-467.1705 66.379448 -3.0839567 0
-471.70612 68.187599 -3.0427055 0
-464.64688 68.485657 -3.0271816 0
-470.18042 69.297157 -3.0056481 0
-474.65735 69.469048 -3.0393414 0
-471.06091 69.868378 -3.0491672 0
-470.78006 70.148277 -3.0312455 0
-473.15704 70.265816 -3.0243409 0
-466.92111 70.906906 -3.0823612 0
-469.66751 71.403923 -3.0059738 0
-486.54916 50.069286 -2.9533384 0
-504.98575 50.687386 -2.9799399 0
-489.07428 50.762585 -2.9045949 0
-489.3833 50.955585 -2.9814065 0
-523.6059 51.045631 -2.914243 0
-450.74982 51.087315 -2.9617541 0
-497.2142 51.169437 -2.9218388 0
-496.9787 51.149021 -2.9924784 0
-506.59311 51.290901 -2.9924474 0
-503.63 51.216785 -2.9746113 0
-452.46552 51.236118 -2.9142766 0
-524.83472 51.34264 -2.9547977 0
-504.59406 51.534466 -2.9943283 0
-524.771 51.637905 -2.9641035 0
-504.35245 51.672215 -2.9697554 0
-503.91699 51.617661 -2.9678984 0
-496.53424 51.614544 -2.9917188 0
-496.43137 51.662281 -2.9032838 0
-496.3418 51.756401 -2.950222 0
-496.09369 51.774288 -2.9938779 0
-524.5343 51.96875 -2.9569476 0
-505.90546 51.935844 -2.9990237 0
-496.11206 51.910717 -2.9442749 0
-496.01886 51.964451 -2.9829161 0
-495.85532 52.088512 -2.9624476 0
-524.70416 52.16563 -2.9516068 0
-509.16208 52.114883 -2.9936841 0
-506.5687 52.182266 -2.9089584 0
-504.91336 52.136959 -2.9304502 0
-508.8334 52.227737 -2.9790804 0
-508.49533 52.232967 -2.9115646 0
-495.57526 52.283932 -2.9480808 0
-510.61978 52.33754 -2.9428425 0
-510.26157 52.383533 -2.9381251 0
-509.97037 52.48391 -2.9460549 0
-509.23651 52.474907 -2.9309573 0
-507.75729 52.476017 -2.9047685 0
-495.36447 52.444557 -2.9144828 0
-524.36462 52.596504 -2.9803596 0
-507.43503 52.547665 -2.9031048 0
-511.30472 52.677387 -2.9710152 0
-495.01666 52.659828 -2.937223 0
-494.52176 52.600494 -2.9206779 0
-494.45453 52.601402 -2.9298615 0
-472.89084 52.677509 -2.9744647 0
-524.81793 52.736656 -2.9369347 0
-524.16718 52.861477 -2.9760427 0
-524.35516 52.908928 -2.9224823 0
-516.70093 52.916443 -2.9747555 0
-511.41797 52.916576 -2.975168 0
-494.42902 52.943771 -2.9024529 0
-494.34732 52.902721 -2.9157948 0
-524.22675 53.012543 -2.9429224 0
-493.14737 53.061852 -2.9910336 0
-520.70923 53.124393 -2.9898379 0
-493.90128 53.122498 -2.9817116 0
-494.02872 53.285313 -2.955323 0
-493.31161 53.243526 -2.9468224 0
-512.83618 53.389725 -2.9865565 0
-523.72247 53.483971 -2.9152632 0
-523.40674 53.494411 -2.9607751 0
-512.98163 53.403351 -2.9891832 0
-524.14758 53.544296 -2.9008758 0
-523.07574 53.553234 -2.9925454 0
-492.71191 53.517426 -2.9663272 0
-492.45895 53.53017 -2.9905286 0
-452.22458 53.545914 -2.955524 0
-523.2207 53.655746 -2.9067657 0
-523.06299 53.687248 -2.96208 0
-492.77676 53.626404 -2.9533138 0
-523.34772 53.751884 -2.9073508 0
-523.28204 53.709328 -2.9073389 0
-523.15179 53.707355 -2.9045022 0
-515.37616 53.724503 -2.9486427 0
-522.93585 53.897701 -2.9777365 0
-522.83325 53.852875 -2.9496744 0
-515.26947 53.827946 -2.9551368 0
-522.53998 53.991528 -2.9515741 0
-521.70496 53.935848 -2.9855869 0
-515.6601 53.972916 -2.9082427 0
-492.59961 53.998913 -2.939265 0
-522.66888 54.086296 -2.9150972 0
-521.97345 54.292061 -2.9359477 0
-521.44226 54.213154 -2.9542429 0
-521.84332 54.349247 -2.9507642 0
-521.40546 54.359573 -2.965704 0
-492.38358 54.30624 -2.9327137 0
-491.88474 54.390583 -2.9995291 0
-484.58383 54.300205 -2.9339681 0
-450.70474 54.369225 -2.9030256 0
-484.72198 54.422756 -2.9105368 0
-519.11658 54.502365 -2.9544952 0
-491.86035 54.551418 -2.9929643 0
-491.63492 54.540874 -2.9984012 0
-491.84058 54.702095 -2.9869399 0
-491.16812 54.854622 -2.9799798 0
-491.0015 55.379616 -2.9407239 0
-476.53979 55.878048 -2.9605248 0
-491.60876 55.939571 -2.9219706 0
-471.07501 56.174831 -2.9147816 0
-489.90045 56.343147 -2.9729013 0
-489.42203 56.881405 -2.9960716 0
-490.02716 57.321808 -2.9625235 0
-456.77158 57.308041 -2.9442682 0
-480.87897 57.42807 -2.9680333 0
-456.85208 57.436214 -2.9444504 0
-489.02075 57.908127 -2.9490235 0
-481.89597 58.14624 -2.9274063 0
-481.45819 58.199669 -2.985393 0
-489.12775 58.344292 -2.9075401 0
-489.01575 58.383831 -2.9082193 0
-488.48901 58.649109 -2.9320598 0
-481.24768 58.671906 -2.9818563 0
-485.4718 58.978031 -2.9110126 0
-487.79126 59.162079 -2.9258113 0
-481.56696 59.108845 -2.9593663 0
-487.95334 59.322563 -2.9028711 0
-461.90628 59.503868 -2.9726369 0
-484.58987 59.669868 -2.9103143 0
-453.74307 59.660007 -2.9235601 0
-460.86224 60.051441 -2.9364371 0
-478.74252 60.516197 -2.9415548 0
-481.52072 62.259045 -2.922883 0
-481.2309 62.269833 -2.9084985 0
-481.64777 62.326736 -2.9351883 0
-482.18173 62.560833 -2.9529865 0
-460.80524 63.405445 -2.9277654 0
-480.96295 63.844902 -2.9741054 0
-458.43277 65.627495 -2.9243186 0
-453.92911 66.426651 -2.9886274 0
-476.0799 66.563293 -2.996572 0
-473.14636 66.734062 -2.9534411 0
-477.30215 68.558052 -2.9165108 0
-476.73795 68.832718 -2.933665 0
-476.29596 69.129082 -2.9205306 0
-476.14914 69.213989 -2.9996576 0
-475.53397 69.985504 -2.9700632 0
-471.66449 70.023918 -2.9859977 0
-457.93503 70.389732 -2.9012396 0
-471.49081 70.919464 -2.9116862 0
-471.22272 70.928772 -2.9228077 0
-466.24796 71.848244 -2.9942217 0
-459.98447 71.963127 -2.9222665 0
-469.42499 72.117577 -2.9251471 0
-462.48593 72.161293 -2.9502521 0
-463.1752 72.23278 -2.9797544 0
-463.14343 72.406662 -2.9944081 0
-525.76135 50.09565 -2.8223741 0
-517.3045 50.073898 -2.8103459 0
-499.27966 50.013939 -2.8207529 0
-525.78186 50.265957 -2.8098624 0
-498.37167 50.205311 -2.8048029 0
-486.30338 50.613495 -2.8289711 0
-497.78741 50.892895 -2.8139153 0
-489.20554 50.855175 -2.8936038 0
-489.15436 50.874989 -2.8976336 0
-520.14038 50.960735 -2.8683448 0
-502.84128 51.261658 -2.8714366 0
-500.52054 51.22514 -2.8498166 0
-452.40176 51.228493 -2.8053253 0
-452.39514 51.224949 -2.8684344 0
-496.33771 51.596657 -2.8502526 0
-504.67416 51.640091 -2.8552678 0
-500.25964 51.618732 -2.847657 0
-502.99951 51.722202 -2.8542025 0
-504.9866 52.044888 -2.8637669 0
-504.27078 52.051552 -2.8616681 0
-519.48175 52.150021 -2.8747141 0
-504.87631 52.177139 -2.8606949 0
-503.36905 52.184349 -2.8923283 0
-503.28024 52.194157 -2.8454771 0
-506.55411 52.211346 -2.8862152 0
-505.26791 52.243515 -2.8732059 0
-504.13205 52.242344 -2.8524709 0
-519.54285 52.31649 -2.8678868 0
-507.52603 52.388016 -2.8993235 0
-507.45068 52.386024 -2.8978107 0
-507.30536 52.367184 -2.8955345 0
-507.11041 52.378021 -2.895443 0
-506.7272 52.389786 -2.889323 0
-506.25626 52.385838 -2.8897393 0
-503.87952 52.311878 -2.8616383 0
-519.61639 52.442448 -2.8726742 0
-505.86264 52.451271 -2.8779867 0
-504.94455 52.413143 -2.8637247 0
-503.08356 52.442833 -2.8631821 0
-495.3364 52.431408 -2.8753521 0
-506.00946 52.507309 -2.8799622 0
-505.53699 52.502335 -2.8719788 0
-504.48352 52.594749 -2.8590231 0
-504.19028 52.570377 -2.8543377 0
-456.14252 52.516708 -2.8385057 0
-455.71051 52.536274 -2.8082645 0
-505.9519 52.651802 -2.8706863 0
-505.84915 52.644337 -2.8676758 0
-502.80566 52.686474 -2.8498201 0
-500.95108 52.684128 -2.8407712 0
-509.93796 52.782379 -2.8092885 0
-504.4588 52.755543 -2.8020427 0
-505.92667 52.856758 -2.8648071 0
-502.18665 53.046429 -2.837841 0
-516.40497 53.174328 -2.8929157 0
-494.00803 53.195763 -2.8552642 0
-500.03665 53.263523 -2.8013353 0
-494.04718 53.233387 -2.8140168 0
-493.8392 53.261848 -2.8367214 0
-493.9718 53.319931 -2.8816733 0
-501.72043 53.488743 -2.8246832 0
-524.12488 53.552525 -2.8821933 0
-516.00903 53.679718 -2.8586681 0
-523.84943 53.754379 -2.8702779 0
-523.71777 53.765511 -2.8835118 0
-523.57312 53.972679 -2.8278165 0
-515.69977 54.004509 -2.8419139 0
-518.7182 54.16785 -2.8641045 0
-518.68915 54.156914 -2.8009088 0
-516.59631 54.126671 -2.8914752 0
-493.37607 54.161026 -2.8392394 0
-522.56891 54.20327 -2.8988218 0
-515.21552 54.28516 -2.8846757 0
-493.78815 54.2066 -2.8472002 0
-493.31339 54.237648 -2.8216505 0
-522.46967 54.308521 -2.8958125 0
-516.87683 54.339893 -2.8459249 0
-515.1684 54.327389 -2.8138332 0
-493.51596 54.35231 -2.8102863 0
-521.66217 54.467373 -2.8807774 0
-518.31348 54.455753 -2.8567033 0
-517.90906 54.459148 -2.8614371 0
-492.26553 54.41127 -2.8055727 0
-467.10889 54.428841 -2.8014989 0
-450.70078 54.410969 -2.8900876 0
-450.62561 54.400818 -2.8880756 0
-514.58221 54.514324 -2.858603 0
-492.78882 54.541901 -2.8071957 0
-521.24176 54.619286 -2.8628681 0
-521.17664 54.613094 -2.8610883 0
-519.76227 54.607018 -2.8199561 0
-517.75494 54.645111 -2.8245091 0
-517.46173 54.699741 -2.8160968 0
-517.15265 54.631027 -2.8048406 0
-522.20764 54.731365 -2.8076744 0
-519.50348 54.740894 -2.8975456 0
-518.62756 54.703487 -2.8577554 0
-517.91272 54.897884 -2.8207355 0
-517.24683 54.839848 -2.8000996 0
-453.53403 54.833973 -2.8886442 0
-518.62085 54.991638 -2.8524244 0
-518.3689 54.941177 -2.8282681 0
-463.62045 54.955086 -2.8555629 0
-518.99725 55.017971 -2.8004498 0
-492.03473 55.189293 -2.8934302 0
-465.64261 55.231709 -2.8015754 0
-455.83093 55.396435 -2.8054159 0
-492.45593 55.429386 -2.8833952 0
-491.70221 55.402363 -2.8848991 0
-492.4729 55.523689 -2.855834 0
-476.72769 55.856663 -2.8172817 0
-491.93115 56.064426 -2.8481796 0
-491.99036 56.106091 -2.8246191 0
-479.06723 56.156616 -2.8060205 0
-491.61548 56.506546 -2.8109679 0
-456.49588 57.197563 -2.8458991 0
-456.19852 57.304993 -2.8940032 0
-490.57309 57.498409 -2.8382523 0
-475.53656 57.535919 -2.8295009 0
-490.74225 57.919575 -2.8329773 0
-482.0231 58.261082 -2.8357673 0
-481.38214 58.224552 -2.8001659 0
-481.4465 58.363304 -2.8560927 0
-481.37933 58.445343 -2.8765416 0
-481.29935 58.521656 -2.8856835 0
-481.25754 58.63604 -2.8821931 0
-488.46371 58.84338 -2.8655131 0
-488.70929 58.909134 -2.8750031 0
-485.19366 59.168869 -2.8998902 0
-488.23236 59.490032 -2.8635027 0
-487.40634 59.79628 -2.8974085 0
-488.1315 59.919357 -2.8457167 0
-487.89374 60.032154 -2.8187199 0
-487.62341 60.022732 -2.8772995 0
-486.91565 60.139057 -2.8825986 0
-480.35849 60.152313 -2.8402658 0
-487.78772 60.26685 -2.8097227 0
-487.61505 60.218239 -2.8058059 0
-486.13419 60.331326 -2.8496296 0
-483.71909 60.486137 -2.8282375 0
-478.86346 60.579792 -2.8889778 0
-481.40091 62.257145 -2.8233707 0
-483.85422 62.353661 -2.8754959 0
-484.04678 62.479332 -2.8738012 0
-451.25656 62.64505 -2.8964963 0
-470.00095 63.899303 -2.8125594 0
-462.21066 64.973312 -2.8362174 0
-480.27063 65.177353 -2.8823204 0
-480.56345 65.279694 -2.8904972 0
-480.41678 65.223579 -2.8890071 0
-481.17139 65.333405 -2.8373015 0
-477.55945 65.743317 -2.8817062 0
-458.31039 65.724716 -2.8856475 0
