# .PCD v0.7 - Point Cloud Data file format
VERSION 0.7
FIELDS x y z intensity
SIZE 4 4 4 4
TYPE F F F F
COUNT 1 1 1 1
WIDTH 1113
HEIGHT 1
VIEWPOINT 0 0 0 1 0 0 0
POINTS 1113
DATA ascii
-550.9671 24.771385 -3.1364558 0
-551.05377 24.844343 -3.1373012 0
-551.21222 24.990622 -3.1386757 0
-551.14038 24.912304 -3.1382108 0
-552.51172 26.035002 -3.1519487 0
-552.60864 26.11772 -3.1528738 0
-552.70569 26.205437 -3.1537344 0
-553.12384 26.550589 -3.157872 0
-553.23584 26.637947 -3.1590478 0
-553.64484 26.803223 -3.1653554 0
-550.95013 19.532656 -3.014621 0
-550.43781 19.592178 -3.0794625 0
-552.04645 20.069195 -3.0978737 0
-555.5033 20.372593 -3.0204051 0
-555.45764 20.442215 -3.017786 0
-555.43671 20.537073 -3.0154567 0
-555.41595 20.611937 -3.0134995 0
-551.94897 20.657103 -3.0832648 0
-554.06146 20.8134 -3.0004811 0
-551.93628 21.239506 -3.0703444 0
-552.08478 21.836489 -3.0600405 0
-552.35931 22.445257 -3.0517652 0
-552.65045 23.07799 -3.0433006 0
-553.10846 23.734974 -3.0373516 0
-554.23529 24.5089 -3.0409148 0
-557.01788 26.252962 -3.053417 0
-557.49054 27.059364 -3.0446975 0
-557.13 27.062738 -3.0381758 0
-552.53088 18.680771 -2.9096916 0
-552.45441 18.611763 -2.914403 0
-552.6272 18.750967 -2.9104662 0
-552.72327 18.826155 -2.911113 0
-550.25732 18.819223 -2.9974978 0
-550.5412 18.961763 -2.9998558 0
-558.39209 20.123318 -2.9056246 0
-554.08698 21.4266 -2.9879751 0
-554.26782 22.045776 -2.9754319 0
-554.83521 22.704973 -2.9647806 0
-554.84515 22.894447 -2.9642768 0
-555.35327 23.580215 -2.9547551 0
-557.36548 25.116219 -2.95031 0
-554.70795 27.03463 -2.9954827 0
-554.5246 27.066589 -2.9915247 0
-554.14563 27.251612 -2.9808302 0
-552.78265 27.956701 -2.9416044 0
-552.75342 28.04882 -2.9391398 0
-552.71838 28.166388 -2.936039 0
-552.29407 29.171383 -2.9073715 0
-556.68475 27.41971 -2.8979974 0
-556.29785 27.749027 -2.8858988 0
-555.51062 27.888966 -2.8763759 0
-558.00775 27.9069 -2.8647382 0
-557.95026 27.984856 -2.8614037 0
-557.67407 28.015818 -2.8572292 0
-557.41791 28.04743 -2.8536634 0
-557.73822 28.197546 -2.8556149 0
-557.49689 28.234642 -2.8523986 0
-557.32495 28.288998 -2.8509908 0
-554.78394 28.241932 -2.8591404 0
-551.79712 30.256252 -2.8758533 0
-553.19653 30.479301 -2.8064997 0
-552.96405 31.654076 -2.8674655 0
-552.7774 31.791504 -2.8613033 0
-550.82074 32.389713 -2.8143094 0
-551.56409 32.442242 -2.8047788 0
-550.38348 32.52837 -2.8037248 0
-554.99121 -25.073921 -2.7664161 0
-559.45441 19.179779 -2.7224951 0
-555.539 30.796003 -2.7967315 0
-557.38214 30.899801 -2.7866266 0
-555.65747 31.437719 -2.7833576 0
-555.76141 31.553745 -2.7793565 0
-555.51611 31.571505 -2.77654 0
-555.28088 31.579361 -2.7742167 0
-553.29974 31.884935 -2.794497 0
-553.17523 31.90811 -2.7927353 0
-552.8689 31.997793 -2.7839355 0
-552.64972 32.09634 -2.7837992 0
-554.0542 32.153648 -2.7510018 0
-552.02136 32.17469 -2.7720463 0
-553.83569 32.301632 -2.7150352 0
-553.30206 32.316895 -2.73996 0
-551.7301 32.35424 -2.7674122 0
-553.27637 32.423283 -2.7104833 0
-552.9953 32.469193 -2.7327192 0
-551.05237 32.446987 -2.7635663 0
-552.36945 32.508495 -2.7278562 0
-551.43835 32.541874 -2.795717 0
-550.77374 32.50909 -2.7604702 0
-550.04449 32.747635 -2.7515097 0
-551.54932 32.951344 -2.7094128 0
-550.25854 33.317619 -2.7145021 0
-558.18994 -25.117527 -2.6794379 0
-550.49792 -9.5486326 -2.6067584 0
-550.74548 -8.7894411 -2.6084573 0
-550.758 -8.6796713 -2.6124849 0
-550.75714 -5.9038949 -2.6259959 0
-550.32458 16.54154 -2.6078594 0
-563.26544 28.825911 -2.6152165 0
-563.06897 28.898163 -2.6118143 0
-562.93243 28.98126 -2.6044927 0
-562.8006 29.074638 -2.601876 0
-561.37061 29.506857 -2.6789029 0
-559.20142 30.52429 -2.6953092 0
-559.17517 30.604191 -2.6931202 0
-558.90985 30.615822 -2.690181 0
-559.24744 30.795656 -2.6868136 0
-559.84344 30.85689 -2.6414661 0
-559.14642 30.854597 -2.6878202 0
-559.00061 30.907812 -2.6826155 0
-558.70526 30.909111 -2.6839902 0
-557.56982 32.208302 -2.6427794 0
-557.36438 32.225727 -2.6414859 0
-552.26422 32.630039 -2.6953392 0
-556.25482 32.788044 -2.6191778 0
-551.79456 32.934097 -2.6800678 0
-555.961 33.01992 -2.6115057 0
-551.06598 33.519203 -2.6565154 0
-550.75092 33.70459 -2.6806881 0
-550.01752 33.741734 -2.6952331 0
-550.74438 33.859585 -2.6725361 0
-550.40839 34.882305 -2.6427262 0
-550.06781 35.394493 -2.6224678 0
-559.28595 -25.176262 -2.5650122 0
-552.6087 -15.886967 -2.581202 0
-552.14868 -13.50847 -2.5935423 0
-552.17548 -13.485537 -2.593318 0
-553.70264 17.270023 -2.5191269 0
-557.06006 17.508511 -2.5804362 0
-561.27716 17.93642 -2.5674443 0
-563.56659 29.327852 -2.5905643 0
-563.29529 29.388773 -2.5857222 0
-563.5177 29.538013 -2.5798275 0
-563.3512 29.610788 -2.577173 0
-563.15466 29.688032 -2.5735619 0
-567.72711 29.853689 -2.5365362 0
-563.19232 29.814201 -2.5689108 0
-567.70093 29.952341 -2.534373 0
-567.68909 30.061899 -2.532372 0
-563.74878 30.033957 -2.5585999 0
-567.42517 30.115889 -2.5303826 0
-563.56732 30.101465 -2.5557847 0
-567.48322 30.229765 -2.5299344 0
-567.3725 30.318182 -2.525964 0
-564.97705 30.518236 -2.5315795 0
-567.13574 30.62459 -2.5332298 0
-564.85077 30.604961 -2.5252364 0
-561.59998 32.09874 -2.5768747 0
-560.44525 32.05275 -2.5783167 0
-561.32251 32.13419 -2.5789154 0
-560.39813 32.185318 -2.5739815 0
-560.20026 32.234776 -2.5677326 0
-558.11597 32.714836 -2.5479476 0
-557.04645 33.048439 -2.5326452 0
-555.87427 33.181202 -2.5717897 0
-555.04614 33.59972 -2.5895884 0
-556.25806 33.742119 -2.5111928 0
-555.23596 33.752518 -2.5506716 0
-555.21344 33.908726 -2.5477693 0
-554.19922 34.373306 -2.5327537 0
-553.61816 34.681732 -2.5220866 0
-553.17035 34.793674 -2.5438788 0
-553.20294 34.897011 -2.5123951 0
-552.35834 35.489887 -2.5179579 0
-552.03052 35.650818 -2.5105257 0
-550.9281 -4.3220005 -2.423317 0
-550.78845 -3.6491187 -2.4118321 0
-550.10522 16.754009 -2.4921465 0
-550.06403 16.705196 -2.4947159 0
-550.20752 16.84623 -2.4915233 0
-550.14636 16.802822 -2.4895761 0
-550.22693 16.925556 -2.4888127 0
-565.83862 32.052761 -2.4688761 0
-565.50537 32.085464 -2.4691422 0
-564.23749 32.056126 -2.4852681 0
-565.28522 32.150848 -2.4661424 0
-565.00128 32.196789 -2.4621966 0
-564.2887 32.133289 -2.461148 0
-564.24713 32.225868 -2.4567671 0
-563.94879 32.260971 -2.4578419 0
-563.59607 32.287109 -2.4528317 0
-560.86487 32.290623 -2.4778078 0
-563.43573 32.356617 -2.4512208 0
-561.88599 32.393284 -2.4749827 0
-561.3136 32.328156 -2.4776773 0
-560.75391 32.311172 -2.4327378 0
-562.37933 32.43858 -2.4757676 0
-560.3634 32.615841 -2.470835 0
-559.02539 32.934849 -2.4593787 0
-556.35443 34.610863 -2.4143038 0
-555.40051 35.113873 -2.4035547 0
-552.69745 35.799797 -2.4320102 0
-551.53693 36.478931 -2.458071 0
-551.87219 36.531479 -2.4039195 0
-550.48322 36.898743 -2.4586089 0
-551.16248 36.917412 -2.4463241 0
-550.94873 36.909866 -2.4619386 0
-550.81689 37.124336 -2.4387226 0
-551.19299 38.506775 -2.4209156 0
-550.46552 -1.3584012 -2.3679504 0
-550.39551 -0.91711545 -2.3596683 0
-550.33002 -0.50094277 -2.3518026 0
-550.82635 -0.18426104 -2.3297205 0
-576.09033 29.145622 -2.3698356 0
-575.38989 29.147665 -2.3752868 0
-574.35791 30.568272 -2.3502266 0
-574.54156 30.718878 -2.3470545 0
-573.95087 30.708223 -2.3499427 0
-569.94147 32.115997 -2.3281157 0
-562.47583 32.962402 -2.3266914 0
-560.83087 33.232388 -2.3238437 0
-558.56885 33.511276 -2.3615561 0
-559.48071 33.905296 -2.3066664 0
-559.03754 34.001083 -2.3061409 0
-557.88806 34.027603 -2.3356433 0
-558.29443 34.319195 -2.3013511 0
-557.97455 34.305122 -2.3506148 0
-557.5495 34.453583 -2.3077972 0
-557.70203 34.617767 -2.3323131 0
-557.26282 34.874119 -2.3217378 0
-556.79382 35.198551 -2.3029203 0
-554.36566 35.551617 -2.3869095 0
-553.73334 35.963898 -2.3751652 0
-554.76221 36.03833 -2.3448772 0
-553.5379 36.042171 -2.3742397 0
-554.68964 36.459148 -2.3230515 0
-553.21661 36.849533 -2.3530538 0
-552.52338 37.11272 -2.3422139 0
-552.14203 37.206009 -2.3801568 0
-552.03467 37.245426 -2.381506 0
-551.85516 38.174419 -2.3082561 0
-551.79041 38.263 -2.3467014 0
-552.40466 38.960823 -2.326221 0
-550.95306 38.994019 -2.390475 0
-551.04376 39.055843 -2.393163 0
-550.92297 39.13546 -2.3852937 0
-551.11749 39.90163 -2.3669622 0
-550.55902 4.7756891 -2.2186537 0
-550.4165 5.093946 -2.2151854 0
-556.82208 35.039307 -2.2776079 0
-556.18738 35.74662 -2.2344105 0
-556.26514 35.800262 -2.277576 0
-556.16254 35.806286 -2.2666347 0
-556.03302 35.834465 -2.2685444 0
-555.26978 36.313992 -2.2000432 0
-555.08667 36.513107 -2.236387 0
-554.81683 36.684158 -2.2464592 0
-554.82404 36.779022 -2.2453079 0
-554.62189 37.129551 -2.2843089 0
-554.34161 37.120777 -2.2355032 0
-553.47949 37.587315 -2.2325928 0
-553.19141 40.092941 -2.2900941 0
-550.02637 40.740784 -2.2496588 0
-553.30457 41.079353 -2.2552147 0
-552.01624 41.6665 -2.2289298 0
-558.55804 32.201042 -2.1300471 0
-555.07471 36.551792 -2.1893468 0
-554.50201 37.55254 -2.1886272 0
-554.3667 37.69384 -2.1800017 0
-553.83569 39.658768 -2.1698036 0
-555.09961 39.719387 -2.1551514 0
-555.09924 39.979183 -2.142621 0
-554.61102 40.91539 -2.1386471 0
-554.40216 40.970421 -2.1334896 0
-553.62799 41.889446 -2.1094124 0
-553.46423 42.163494 -2.1021376 0
-551.42773 42.246883 -2.1920385 0
-552.94641 6.9591918 -2.0923545 0
-552.74548 6.9095716 -2.0997021 0
-578.45355 32.493038 -2.0284641 0
-583.68298 32.591976 -2.0048122 0
-582.42004 32.594353 -2.0071855 0
-583.09247 32.605488 -2.0039654 0
-581.97083 32.623753 -2.0085356 0
-578.51215 32.62458 -2.0267212 0
-581.37262 32.753166 -2.0100956 0
-578.51453 32.739723 -2.0243285 0
-573.90631 33.026192 -2.0360076 0
-573.72546 33.098194 -2.0362558 0
-573.43225 33.137398 -2.0351944 0
-573.14862 33.171074 -2.0394287 0
-572.76837 33.180851 -2.0374396 0
-562.22931 34.481766 -2.0476303 0
-562.18951 34.564545 -2.0451946 0
-561.21912 34.833504 -2.0423884 0
-559.48059 35.553551 -2.0266674 0
-559.14154 35.660889 -2.0234599 0
-556.25348 36.285656 -2.0146055 0
-556.12469 36.389355 -2.0152066 0
-558.2934 36.427925 -2.0026319 0
-555.47882 36.481617 -2.0119345 0
-556.039 38.870541 -2.0709488 0
-551.73425 38.9259 -2.0043168 0
-556.06567 39.85704 -2.0904224 0
-553.30328 39.962593 -2.0925615 0
-555.96179 40.120998 -2.0781324 0
-551.26459 43.341953 -2.0592093 0
-563.89148 34.796745 -1.9455584 0
-561.5755 35.171741 -1.9619273 0
-561.40588 35.191109 -1.961642 0
-562.53674 35.20155 -1.9513421 0
-560.34229 35.633259 -1.9623828 0
-558.73694 36.569 -1.9613092 0
-556.25928 36.509247 -1.9900525 0
-552.68353 37.230488 -1.9975215 0
-558.23969 38.947018 -1.9249256 0
-558.20599 39.09499 -1.9285624 0
-558.00305 39.478622 -1.9098871 0
-557.64795 40.078411 -1.9185508 0
-556.57483 40.156673 -1.9298338 0
-555.9798 40.289169 -1.9911013 0
-557.49133 40.32132 -1.9037318 0
-556.15308 40.637417 -1.9298779 0
-550.22864 41.064465 -1.998715 0
-555.09863 43.00341 -1.9087923 0
-554.75537 43.247181 -1.9076283 0
-554.49445 43.282631 -1.9196948 0
-554.25818 43.34539 -1.9155067 0
-552.50012 43.602036 -1.9337193 0
-572.46503 34.009434 -1.8868446 0
-557.55249 40.269699 -1.8858207 0
-556.26624 40.619148 -1.8761357 0
-556.1839 40.664574 -1.8737622 0
-550.06689 40.602386 -1.8880932 0
-555.4198 41.920292 -1.8986917 0
-551.82355 43.496998 -1.8401289 0
-552.66058 43.59903 -1.8903414 0
-554.03467 44.05645 -1.8711975 0
-554.13751 44.179211 -1.8487687 0
-552.72827 44.556717 -1.8419811 0
-553.4657 44.702374 -1.8408778 0
-553.22052 45.117085 -1.8192604 0
-560.80695 14.376008 -1.7269428 0
-558.13617 40.058846 -1.7793107 0
-554.17792 44.251759 -1.7624893 0
-554.2373 44.779209 -1.7361975 0
-553.95068 45.078392 -1.7251663 0
-553.73486 45.051441 -1.7103695 0
-553.76611 45.250797 -1.7234743 0
-553.4801 45.324448 -1.717025 0
-551.47858 45.785393 -1.7030712 0
-550.11664 45.923428 -1.7584392 0
-560.88361 14.634156 -1.6492231 0
-560.92206 14.777826 -1.64419 0
-560.89539 14.708686 -1.646871 0
-555.44672 36.457787 -1.6367705 0
-555.44604 36.519924 -1.6359986 0
-555.39026 36.585564 -1.6362542 0
-552.64331 38.438873 -1.649056 0
-552.46924 38.546398 -1.6499395 0
-551.21753 46.092922 -1.6923647 0
-550.20245 46.1502 -1.6248577 0
-551.50818 46.673141 -1.6329422 0
-563.42023 37.157604 -1.5046701 0
-561.98083 37.369194 -1.5104122 0
-552.60632 38.522587 -1.5978309 0
-560.16718 39.815285 -1.5168191 0
-550.32013 41.050491 -1.5228702 0
-550.67883 47.235409 -1.5683051 0
-550.10077 10.38408 -1.4873637 0
-567.2569 36.107613 -1.4849714 0
-565.7254 36.270725 -1.4907548 0
-556.31946 36.216869 -1.4614058 0
-555.39154 36.539314 -1.4202161 0
-560.21942 40.119339 -1.439105 0
-560.08185 40.133469 -1.4423518 0
-560.08185 40.267963 -1.4374759 0
-558.84064 38.234444 -1.3217088 0
-558.75964 38.630283 -1.3054228 0
-558.51727 43.576706 -1.333993 0
-557.58405 44.979546 -1.3256017 0
-550.12054 47.422596 -1.3796066 0
-553.47583 48.415409 -1.385566 0
-553.12579 48.896896 -1.3499854 0
-552.31738 16.682398 -1.2395536 0
-555.36945 36.48748 -1.2095953 0
-555.41522 36.562115 -1.2191414 0
-559.18329 38.081707 -1.2883625 0
-558.7912 38.646381 -1.2774106 0
-558.37073 39.701782 -1.2490772 0
-551.3175 42.345314 -1.2980306 0
-557.81018 44.828568 -1.2712213 0
-555.48584 46.265606 -1.2873288 0
-550.44672 47.262478 -1.241266 0
-550.19086 47.717632 -1.2183771 0
-552.54474 49.491055 -1.2996031 0
-560.02332 2.1701314 -1.1009437 0
-562.52264 38.71006 -1.1995655 0
-560.73242 41.529221 -1.1383473 0
-560.52673 41.808548 -1.1367016 0
-551.92297 43.40749 -1.1414152 0
-555.42664 46.23 -1.1633043 0
-555.8183 47.462017 -1.1723551 0
-561.50287 -2.45803 -1.0851028 0
-560.06744 2.9926224 -1.0841019 0
-560.11652 3.8050981 -1.0722823 0
-560.21368 4.7558846 -1.0503774 0
-560.21289 4.9306822 -1.050971 0
-560.21179 5.1003733 -1.0466863 0
-560.19641 5.295435 -1.0422518 0
-560.24445 36.942299 -1.0585815 0
-558.7771 38.46492 -1.0619974 0
-558.68152 44.829353 -1.0857619 0
-558.52637 45.065384 -1.0779685 0
-558.77008 45.102638 -1.0325249 0
-558.41376 45.344044 -1.0654556 0
-555.38177 46.265923 -1.0668606 0
-550.49884 47.02774 -1.0866016 0
-550.3844 47.221142 -1.0868435 0
-558.78412 38.426186 -0.97092777 0
-558.75568 38.78149 -0.93336934 0
-560.67664 41.653465 -0.91549546 0
-556.10693 48.682819 -0.92109346 0
-556.45911 35.964657 -0.88743031 0
-554.13904 36.588161 -0.87536067 0
-553.82135 37.012886 -0.84765679 0
-565.61835 38.834362 -0.86189598 0
-565.54779 38.972385 -0.83820027 0
-564.45496 39.600548 -0.85477751 0
-564.35406 39.752983 -0.85368222 0
-563.16614 41.112766 -0.85344362 0
-562.59485 41.427578 -0.86251616 0
-561.77594 42.008488 -0.87160563 0
-558.55841 46.619339 -0.84649718 0
-558.01056 46.868881 -0.85690093 0
-556.61047 48.644989 -0.85295349 0
-569.17853 38.097042 -0.74983734 0
-567.63489 38.322815 -0.79146308 0
-550.38129 47.252216 -0.78433973 0
-554.04761 16.7789 -0.6519106 0
-573.53156 37.866516 -0.62137908 0
-558.88336 38.080093 -0.69185245 0
-554.40924 39.818111 -0.61412197 0
-559.84387 45.64616 -0.69596064 0
-559.73932 45.813293 -0.69072402 0
-559.04865 46.920319 -0.65109116 0
-558.19458 47.907803 -0.61634326 0
-558.86523 38.287144 -0.55408293 0
-557.5647 49.100834 -0.56616324 0
-556.4505 35.860775 -0.41038546 0
-555.43066 36.40266 -0.44239628 0
-550.21362 47.423767 -0.48726058 0
-550.18726 47.68465 -0.46471971 0
-550.17023 47.833603 -0.45368859 0
-558.2392 49.224045 -0.41858184 0
-557.87317 49.581402 -0.42905036 0
-556.45325 35.827316 -0.30458605 0
-554.41125 39.86356 -0.32528299 0
-560.16528 5.0156603 -0.22880694 0
-560.2663 6.3836751 -0.28173596 0
-560.9519 14.595252 -0.21235867 0
-556.03082 40.18454 -0.26464289 0
-564.64795 42.923595 -0.23851342 0
-564.87201 43.109962 -0.21074691 0
-564.18884 43.699364 -0.24752936 0
-559.62018 44.062359 -0.20081683 0
-563.88611 44.132633 -0.25373232 0
-563.13477 45.05624 -0.27155682 0
-560.02167 3.0480907 -0.12708941 0
-560.03748 3.1271029 -0.12745038 0
-560.04791 3.2032919 -0.19977623 0
-560.04498 3.3323333 -0.13337663 0
-560.02917 3.6385491 -0.14324205 0
-560.13641 4.7496796 -0.1592083 0
-560.16376 5.0540514 -0.15187937 0
-559.11212 37.670746 -0.12891321 0
-564.18756 44.00013 -0.15099323 0
-562.43671 44.473991 -0.1348049 0
-563.64142 44.528488 -0.11560594 0
-550.2854 47.331715 -0.12612404 0
-560.09326 4.4938707 -0.02483082 0
-560.15143 5.6429939 -0.012829957 0
-559.89941 1.3594865 0.041434772 0
-560.04132 3.3973777 0.011788776 0
-561.22046 14.66411 0.092491992 0
-561.349 14.785861 0.052425608 0
-561.22906 14.781694 0.04151893 0
-556.43311 35.741367 0.071209036 0
-555.41913 36.372818 0.090155765 0
-559.59436 44.360146 0.085368976 0
-550.34943 47.265465 0.067789689 0
-559.92291 1.5892018 0.17578685 0
-559.9649 2.2702475 0.16493022 0
-560.16913 5.6333609 0.10375243 0
-556.39069 35.753151 0.19249408 0
-556.38385 35.913185 0.11899508 0
-555.31067 36.506805 0.13159359 0
-564.25458 40.225201 0.15707131 0
-562.33551 47.390366 0.11124083 0
-561.5932 48.345955 0.19164371 0
-564.55444 43.231659 0.2887302 0
-550.34387 47.316589 0.26890835 0
-550.25732 47.342094 0.269012 0
-556.39862 35.754047 0.33475363 0
-560.30396 36.90546 0.35547289 0
-560.29004 36.946205 0.39378595 0
-551.95428 43.21191 0.36614239 0
-550.22107 47.62505 0.35104683 0
-562.37421 48.173069 0.38052526 0
-561.06873 49.022526 0.34807932 0
-556.45105 35.651554 0.41477385 0
-560.28479 36.959427 0.43256202 0
-550.33752 40.961231 0.43244994 0
-550.22388 41.025089 0.40582097 0
-566.33459 45.359013 0.46791855 0
-565.50262 45.811108 0.43931559 0
-565.46277 46.121716 0.44838795 0
-555.36255 36.291836 0.59613729 0
-560.37622 36.897953 0.56110913 0
-571.53802 41.170193 0.57407695 0
-550.23627 47.344254 0.5466466 0
-559.39288 49.485294 0.59753698 0
-569.69812 17.563486 0.68324745 0
-560.36304 36.82935 0.63957149 0
-559.23126 37.809631 0.69036365 0
-559.07849 37.891048 0.67142081 0
-558.87238 38.168121 0.68212563 0
-560.77026 41.420738 0.6839841 0
-550.35675 47.286156 0.64222604 0
-550.22437 47.509514 0.69188803 0
-550.14679 47.554329 0.61506665 0
-563.62372 48.974983 0.63750631 0
-563.45526 49.231167 0.65285975 0
-563.14557 49.50491 0.67091 0
-553.55939 17.23868 0.77434379 0
-560.29907 36.951572 0.79737556 0
-550.38342 40.888897 0.78752971 0
-574.03967 42.070499 0.73645455 0
-559.62006 44.094025 0.72863829 0
-559.5567 44.167664 0.72859764 0
-559.59021 44.332653 0.7531327 0
-553.48505 17.231539 0.89122874 0
-555.9519 32.367973 0.96586275 0
-559.4895 46.1842 0.93145549 0
-550.23889 47.397614 0.94664842 0
-550.20819 47.519825 0.98259503 0
-556.46265 35.545101 1.0795729 0
-556.44244 35.656322 1.0039797 0
-558.9162 38.20137 1.0639964 0
-550.25958 40.905411 1.0043217 0
-559.72211 44.11871 1.0912042 0
-559.53735 44.194263 1.0876377 0
-559.21637 49.376244 1.034276 0
-555.95728 32.45232 1.1786683 0
-554.5108 39.461136 1.1165851 0
-566.55798 41.362648 1.1880833 0
-551.97809 42.994812 1.1980304 0
-559.6087 44.142632 1.1208478 0
-559.22729 49.380039 1.1770673 0
-561.01068 -46.593513 1.297873 0
-559.00708 37.832329 1.2705041 0
-558.90582 38.048134 1.2619137 0
-551.96442 43.030228 1.2927251 0
-566.96533 44.073982 1.2430911 0
-559.8006 44.094563 1.2210253 0
-559.64325 44.131447 1.2158815 0
-569.95264 45.66766 1.2048852 0
-569.2381 46.328896 1.2399201 0
-569.05518 46.471844 1.2458025 0
-559.01141 37.824921 1.3370543 0
-558.0871 39.613354 1.3169711 0
-560.63147 41.346642 1.3988996 0
-566.90155 44.143463 1.3691571 0
-550.67651 46.876389 1.3630598 0
-568.79382 47.184956 1.303261 0
-568.61945 48.205864 1.3940763 0
-560.09833 36.003056 1.4150064 0
-560.11743 36.563519 1.4208305 0
-560.26117 36.913616 1.4890147 0
-559.09515 37.76033 1.4837264 0
-566.88477 44.119678 1.4483941 0
-567.90137 49.380756 1.4892691 0
-569.91327 41.897942 1.5047165 0
-559.63495 44.147697 1.5667615 0
-559.57697 44.294289 1.5736189 0
-573.4588 45.698257 1.5725324 0
-572.46515 45.892403 1.5279883 0
-570.39392 46.839928 1.5253253 0
-550.51477 47.20013 1.5331023 0
-550.27167 47.30957 1.5790496 0
-550.19409 47.491234 1.5424668 0
-559.06219 49.441914 1.5653672 0
-558.92059 49.501705 1.5988216 0
-558.96082 37.850132 1.6112112 0
-558.93121 38.012371 1.6200609 0
-550.19629 47.461029 1.6058675 0
-559.13452 49.271179 1.6803803 0
-572.56464 13.916641 1.7097275 0
-556.39612 35.492958 1.7654412 0
-559.32422 37.6534 1.7987213 0
-559.2561 37.668686 1.7859472 0
-559.13422 37.726891 1.7880211 0
-559.06976 37.772968 1.7884889 0
-571.17792 41.24612 1.7259496 0
-555.24274 46.201679 1.7660309 0
-555.29584 36.24868 1.891117 0
-558.9812 37.992329 1.840965 0
-559.03192 38.102741 1.8255014 0
-560.49219 41.373692 1.801169 0
-570.36859 46.879192 1.8179995 0
-570.51624 13.654184 1.9274994 0
-555.85138 47.870903 1.9106147 0
-555.3457 36.040131 2.0087683 0
-558.96106 37.875626 2.072155 0
-560.54425 41.253933 2.0082426 0
-559.74176 44.010468 2.0962503 0
-559.58575 44.074463 2.0285835 0
-573.81946 46.868053 2.0454926 0
-571.45135 48.554573 2.0227787 0
-570.4408 49.786819 2.0918791 0
-559.16589 37.720303 2.1312165 0
-551.95441 42.704365 2.1136303 0
-559.54022 44.348743 2.1118703 0
-560.37415 31.944731 2.2805219 0
-563.54718 44.342896 2.2625599 0
-560.94324 45.892097 2.2141414 0
-560.4375 31.709915 2.3547306 0
-554.67834 34.244957 2.344449 0
-559.74243 37.148438 2.329421 0
-559.36975 37.575153 2.3228014 0
-559.17249 37.683113 2.3154409 0
-559.04529 38.046795 2.3901937 0
-559.56128 44.190228 2.3046467 0
-559.57117 44.414307 2.3699172 0
-550.31335 47.246571 2.353981 0
-550.31262 47.302303 2.3100212 0
-572.38416 49.594536 2.3509986 0
-554.67389 34.487595 2.4541285 0
-556.34021 35.217163 2.4285834 0
-555.237 36.079338 2.40838 0
-560.05585 36.565971 2.4581389 0
-559.09766 37.924824 2.4454956 0
-569.40936 40.429882 2.4996037 0
-569.18164 41.800163 2.4524426 0
-554.73871 34.677105 2.5496039 0
-560.01636 36.257622 2.5890267 0
-559.96387 36.430305 2.5577636 0
-559.43011 37.557663 2.5503013 0
-569.57477 39.371426 2.5811591 0
-566.85803 44.11874 2.5030706 0
-563.52661 44.206963 2.5899632 0
-555.07001 46.048744 2.5850022 0
-550.32819 47.276192 2.5708628 0
-550.23724 47.37006 2.5702972 0
-570.68774 13.905034 2.6966431 0
-559.95343 33.341087 2.6778195 0
-556.24402 34.283474 2.6507156 0
-556.35571 35.310535 2.6383719 0
-569.76379 38.782669 2.6299958 0
-569.82263 38.972111 2.6876867 0
-569.79443 39.020996 2.6494048 0
-569.5672 39.156494 2.636236 0
-569.51526 39.360294 2.6463823 0
-568.8634 39.990028 2.6309452 0
-571.07007 41.276035 2.6656063 0
-563.54065 44.326046 2.6669655 0
-550.25085 47.346119 2.6441326 0
-556.38464 35.155537 2.7407813 0
-554.94336 36.063541 2.7618785 0
-559.20142 37.795765 2.7515738 0
-566.84845 43.965927 2.7482798 0
-559.69348 44.015224 2.7966855 0
-570.35999 46.904724 2.7468419 0
-559.53278 30.95594 2.8824716 0
-556.323 34.953972 2.8135519 0
-560.24255 35.494892 2.8560216 0
-555.15729 36.079605 2.8500013 0
-552.36725 42.554157 2.889128 0
-561.99902 45.302574 2.8946872 0
-554.91522 45.963726 2.8721845 0
-559.96576 33.723904 2.9648333 0
-559.92712 34.255882 2.9986906 0
-555.18372 36.074608 2.9647846 0
-555.10687 36.131062 2.9577715 0
-559.83698 36.933582 2.9047728 0
-559.74054 44.044456 2.9837315 0
-570.34235 46.877296 2.9515247 0
-570.31384 47.010189 2.9012101 0
-570.17719 47.094467 2.9917076 0
-570.36798 14.870263 3.0792694 0
-556.32733 35.216084 3.0385945 0
-566.92212 43.944866 3.0847168 0
-559.48938 44.358353 3.0351698 0
-573.74597 45.141479 3.0867531 0
-550.07397 46.475159 3.0510323 0
-571.17596 16.988548 3.1811306 0
-571.14349 17.106913 3.1786044 0
-561.96161 33.018307 3.1739841 0
-559.74445 34.735687 3.1171231 0
-559.70007 34.814705 3.1693721 0
-559.73157 35.08786 3.1979203 0
-559.80933 35.291492 3.1919281 0
-559.22137 37.711342 3.1837287 0
-568.42548 38.078835 3.1876853 0
-568.15375 38.362099 3.1919677 0
-572.44556 42.318661 3.1109371 0
-552.35614 42.482964 3.1419497 0
-571.98425 43.481373 3.1530802 0
-570.31354 46.947681 3.1410308 0
-550.19458 47.528381 3.1830702 0
-560.92889 28.336145 3.2148774 0
-561.68823 33.317856 3.2604387 0
-560.7381 34.275902 3.2767506 0
-560.70508 34.351635 3.2778234 0
-560.66711 34.49976 3.2161331 0
-556.40167 34.874119 3.2570844 0
-559.82434 35.490997 3.209326 0
-559.7807 35.460369 3.2297425 0
-568.52264 38.221355 3.2110875 0
-559.49701 44.432484 3.2117915 0
-570.11591 47.236813 3.2779922 0
-550.45337 47.217632 3.2701185 0
-550.28406 47.535934 3.2944443 0
-555.38171 30.124399 3.3241129 0
-554.4118 36.036621 3.3030033 0
-559.60687 37.640404 3.3531814 0
-559.2608 37.849197 3.3282733 0
-568.82623 38.479515 3.3392246 0
-570.13495 47.198196 3.3072405 0
-550.40436 47.282314 3.3714235 0
-550.3924 47.223122 3.3669999 0
-550.3316 47.318336 3.3915391 0
-550.23328 47.45644 3.3775325 0
-559.15857 49.237301 3.3661246 0
-559.00049 49.486137 3.368228 0
-555.479 30.203796 3.4416239 0
-557.02271 33.821156 3.4035048 0
-560.93408 34.195503 3.4066603 0
-556.3866 35.067131 3.4050782 0
-555.08356 35.971638 3.4231813 0
-554.99921 36.07938 3.4732239 0
-550.83978 40.073689 3.4595909 0
-550.32886 47.157745 3.4304469 0
-559.0658 32.745773 3.5771391 0
-561.0661 33.919647 3.5271497 0
-559.05054 37.614864 3.5797396 0
-559.23486 37.947182 3.5221946 0
-569.35071 39.007919 3.5584228 0
-554.86835 45.947567 3.5340371 0
-554.79663 46.016106 3.53703 0
-550.2854 47.472576 3.5882859 0
-559.04248 49.376698 3.5619819 0
-556.2865 34.99472 3.6402626 0
-555.00189 36.032784 3.6392453 0
-559.25702 38.129158 3.6732037 0
-560.5603 41.218681 3.65257 0
-550.33313 47.283958 3.6341789 0
-550.18903 47.466091 3.6563582 0
-579.55988 49.783184 3.6380091 0
-556.95294 30.874397 3.7608089 0
-559.06897 32.856712 3.7075319 0
-554.91608 36.032665 3.746978 0
-559.26697 37.973904 3.7639098 0
-554.60394 46.006748 3.7971919 0
-560.85229 29.018339 3.8170271 0
-561.57581 31.840101 3.8465629 0
-552.29926 42.223831 3.8658068 0
-550.49487 46.925541 3.8141809 0
-550.2066 47.578457 3.8032901 0
-551.7923 38.920189 3.9923096 0
-553.737 42.060101 3.9086895 0
-559.57947 44.059887 3.9398768 0
-559.50354 44.216572 3.94681 0
-559.13751 49.21413 3.9520955 0
-570.94897 16.353357 4.043952 0
-555.61609 33.035313 4.0515494 0
-559.54376 37.451725 4.0442338 0
-559.54535 37.527027 4.0120115 0
-550.3913 47.191685 4.0410028 0
-550.50061 47.280071 4.0115123 0
-550.20038 47.331875 4.0336905 0
-563.50952 29.801216 4.1841402 0
-555.9729 33.422077 4.1472888 0
-556.00745 33.617466 4.147862 0
-559.38312 37.38039 4.1398783 0
-559.28961 37.520092 4.1395087 0
-559.39453 37.733421 4.1689172 0
-559.75708 44.03548 4.1291604 0
-550.5705 46.773758 4.1295161 0
-569.99976 47.091972 4.1177278 0
-550.23456 47.331314 4.1882882 0
-563.51538 29.866987 4.2392931 0
-559.32123 37.400669 4.2197933 0
-551.28906 41.669846 4.2660155 0
-559.51923 44.062378 4.2327867 0
-550.22083 45.309841 4.2979002 0
-583.49896 7.8834596 4.3815999 0
-559.02429 34.311356 4.3273726 0
-556.32617 34.883286 4.3277678 0
-559.57404 37.142025 4.3219628 0
-559.34808 37.415501 4.3859935 0
-554.27661 45.906193 4.3893361 0
-550.75769 46.856091 4.3165879 0
-551.04773 46.969185 4.3036547 0
-559.26453 49.161156 4.3536725 0
-558.11108 32.098949 4.4012737 0
-556.28571 34.823826 4.4713445 0
-556.28308 34.905651 4.4056468 0
-559.19043 37.00346 4.4445481 0
-559.15479 37.191883 4.4542279 0
-552.36432 42.085747 4.4913912 0
-559.52417 44.194313 4.4707437 0
-559.27032 49.103428 4.4068532 0
-575.70367 8.4570932 4.5704145 0
-559.08295 49.433937 4.5082741 0
-575.46057 8.365119 4.6010585 0
-576.05896 8.8018608 4.6910534 0
-559.1814 36.882111 4.6020684 0
-559.48407 37.007812 4.6245422 0
-559.47748 37.582211 4.6546488 0
-559.4389 37.607132 4.6723652 0
-550.67004 45.157005 4.6428638 0
-550.14551 47.401089 4.6349311 0
-573.85773 17.372713 4.7551579 0
-555.91522 32.041401 4.7723312 0
-559.73114 37.544025 4.7374048 0
-553.64319 42.126476 4.7834482 0
-551.30469 45.324905 4.7752819 0
-577.03436 5.6563711 4.8108511 0
-576.95801 5.6455245 4.8262935 0
-576.96521 6.1481061 4.8652191 0
-575.56091 8.4104538 4.8401289 0
-551.63879 41.629326 4.8473535 0
-550.12518 45.945942 4.8408861 0
-550.90002 46.167477 4.867723 0
-576.5163 6.4831996 4.9077177 0
-554.88208 35.943222 4.9827576 0
-551.66058 41.723545 4.9107022 0
-566.74591 44.031902 4.9208956 0
-550.35638 45.726181 4.9376802 0
-550.12811 47.428524 4.9388289 0
-575.96289 8.2250719 5.0226827 0
-570.849 40.364143 5.0955982 0
-550.41302 45.725544 5.0372496 0
-550.14825 47.365353 5.0559745 0
-575.25885 6.1153445 5.137352 0
-556.24365 34.686302 5.1936655 0
-559.62341 37.701733 5.1260157 0
-571.2627 39.789734 5.1865292 0
-570.94171 39.987648 5.1547289 0
-553.65723 44.088818 5.1330795 0
-575.89697 8.2809448 5.2874789 0
-556.21399 34.683594 5.2449894 0
-559.62384 37.73806 5.2092819 0
-573.10675 14.333364 5.3570933 0
-556.32886 34.611092 5.3619318 0
-554.82697 35.931007 5.3887672 0
-559.68964 37.437672 5.3227344 0
-559.63062 37.717392 5.3444114 0
-563.32678 43.85508 5.3266454 0
-559.55414 43.933472 5.3785653 0
-559.5719 44.029472 5.3471518 0
-570.04871 46.968037 5.4477167 0
-559.58411 48.990467 5.4828467 0
-554.8996 35.751129 5.5010443 0
-569.9093 47.058624 5.5547099 0
-550.19421 47.408432 5.5116868 0
-550.08655 47.436485 5.5055432 0
-556.17462 34.498653 5.675437 0
-554.81573 35.980495 5.6141071 0
-560.32959 41.049313 5.6926203 0
-554.09937 45.864433 5.6207638 0
-559.45154 49.057369 5.6241498 0
-559.35016 49.116276 5.6181173 0
-559.27399 49.180382 5.6214409 0
-559.20435 49.233192 5.689034 0
-574.78198 6.9940705 5.764535 0
-555.94464 33.978298 5.7825203 0
-559.72559 37.278652 5.7530341 0
-559.72351 37.468693 5.7023935 0
-574.98395 6.5832534 5.807673 0
-557.09204 32.652676 5.896564 0
-556.93146 32.636749 5.8307495 0
-559.54474 37.193443 5.8484693 0
-559.4411 44.066647 5.8521209 0
-550.22595 47.250713 5.8947606 0
-550.17395 47.44775 5.8077269 0
-559.34583 49.052898 5.8039899 0
-559.33905 49.178436 5.8166542 0
-575.07709 6.7310247 5.9769902 0
-575.91321 8.1633444 5.9058022 0
-559.64246 35.274345 5.9660358 0
-570.66827 39.729176 5.9806104 0
-566.66486 43.890541 5.9769964 0
-559.52332 44.042316 5.9083128 0
-550.19244 47.314388 5.9370694 0
-574.87585 6.9218426 6.0464253 0
-576.61285 7.0250082 6.0738273 0
-575.21558 7.0730181 6.0962257 0
-575.30396 7.6460423 6.0913973 0
-559.55048 35.339794 6.0751228 0
-554.76361 35.956673 6.0483418 0
-559.39197 36.859352 6.0229883 0
-559.52472 44.000599 6.0035081 0
-559.52789 44.120365 6.0201106 0
-550.13446 47.397396 6.0897059 0
-576.02124 8.0624237 6.1966238 0
-577.27905 8.3820133 6.1445374 0
-559.71014 35.032501 6.1145077 0
-559.86963 37.393894 6.143558 0
-566.74457 43.865295 6.17345 0
-551.83044 46.112789 6.1510186 0
-574.55725 7.522572 6.2892599 0
-575.28729 8.1458941 6.2059994 0
-574.00745 8.3682404 6.2764788 0
-559.77423 37.305569 6.2823238 0
-566.76135 43.763504 6.2877793 0
-550.35962 47.234665 6.2186289 0
-550.13757 47.373589 6.2146487 0
-576.31818 5.6831684 6.3264055 0
-574.2843 8.4109955 6.3694057 0
-559.802 34.798874 6.343585 0
-559.77325 37.159134 6.3159637 0
-559.62909 43.820808 6.3278642 0
-554.95648 45.149769 6.3814101 0
-580.73212 26.927143 6.4052677 0
-580.7677 27.069807 6.419416 0
-556.23773 34.236729 6.4985561 0
-559.6701 43.790512 6.4803853 0
-559.62421 43.875114 6.4834461 0
-576.74994 4.7557554 6.5187163 0
-590.48785 6.1591139 6.5639825 0
-590.59247 6.3995156 6.5547848 0
-590.53174 6.4472194 6.5671268 0
-561.54736 28.099028 6.5394578 0
-559.90649 34.466633 6.5747962 0
-554.70807 35.938511 6.5026865 0
-554.67535 35.914852 6.5518618 0
-559.59924 36.948956 6.546526 0
-550.8642 46.164101 6.5442801 0
-550.53564 46.245148 6.5426679 0
-550.57104 46.310959 6.5621977 0
-550.5993 46.422352 6.5844588 0
-551.10211 46.501583 6.5405116 0
-550.18622 47.262226 6.5042076 0
-555.04553 49.83107 6.5924053 0
-575.51611 6.6273098 6.6070118 0
-575.73822 6.9138346 6.6204553 0
-562.24811 27.264692 6.6482749 0
-556.26471 34.226742 6.6602073 0
-559.52167 36.863544 6.6324334 0
-559.47272 49.131256 6.6035442 0
-591.70776 5.5673218 6.7169819 0
-575.53833 6.7847447 6.7276697 0
-561.31763 29.141529 6.7242694 0
-554.646 35.911182 6.7691932 0
-559.54108 36.762501 6.739511 0
-560.0285 37.388203 6.7893162 0
-559.31146 49.138691 6.727798 0
-578.12378 5.6188993 6.8518906 0
-560.01434 33.897053 6.8627963 0
-556.22125 34.154995 6.8953004 0
-556.22815 35.158833 6.8246984 0
-559.4455 36.453213 6.8650928 0
-566.79785 43.769806 6.8482265 0
-559.53015 43.863228 6.8138323 0
-579.02985 49.626251 6.8422389 0
-560.1062 33.187759 6.9613037 0
-560.05286 33.158421 6.953537 0
-556.19562 34.125286 6.9026866 0
-560.02875 37.474453 6.9082284 0
-554.93311 49.928318 6.9413414 0
-559.71381 29.022774 7.0335126 0
-559.94513 30.054388 7.0915565 0
-560.2821 31.793673 7.0875497 0
-560.15118 33.592827 7.0112896 0
-562.10266 35.982418 7.0423932 0
-559.5874 37.485435 7.0620127 0
-559.68103 43.75309 7.0321083 0
-550.30005 47.219929 7.0315046 0
-576.034 6.0783076 7.1859612 0
-590.70093 6.1939144 7.1810493 0
-576.16498 6.7485414 7.1974893 0
-555.5932 32.356621 7.1230025 0
-556.23132 34.198437 7.1730733 0
-559.08545 42.460136 7.1501565 0
-559.5614 43.898251 7.1697116 0
-550.15277 47.230968 7.1572618 0
-559.61725 48.930927 7.1068239 0
-559.5202 49.195255 7.1810961 0
-578.97699 49.47805 7.109602 0
-576.31903 4.926095 7.2598491 0
-590.79309 6.3536234 7.212646 0
-576.5954 8.2733631 7.2607713 0
-576.44788 8.5045795 7.2587781 0
-559.34344 27.361565 7.2498407 0
-556.03009 31.189398 7.2972569 0
-556.06042 31.222103 7.2210217 0
-560.25525 37.19817 7.2798204 0
-555.68195 37.388577 7.2464204 0
-569.89703 39.278313 7.2043777 0
-554.98297 49.828949 7.2534351 0
-576.7937 5.0116277 7.3467917 0
-575.88757 6.0247688 7.3645072 0
-576.46442 7.9264765 7.3706141 0
-576.31439 8.5106087 7.3684039 0
-556.32141 34.236195 7.3542924 0
-558.99524 35.408943 7.3673887 0
-560.18878 37.255703 7.3962164 0
-571.90918 37.689285 7.3666086 0
-566.81073 43.710491 7.3052797 0
-576.51849 5.2756753 7.4649835 0
-576.53723 6.1956549 7.4768705 0
-575.8288 6.1417632 7.4921236 0
-558.32922 35.566872 7.4343476 0
-560.30176 37.164616 7.4463444 0
-559.52264 43.745518 7.4942994 0
-550.16522 47.199421 7.4655824 0
-575.92236 6.2830181 7.5323057 0
-560.97827 32.351112 7.5195665 0
-560.85944 32.614731 7.5199389 0
-560.81628 32.777157 7.5252562 0
-556.26569 34.04195 7.5306554 0
-559.1225 34.887756 7.5074711 0
-576.3443 5.1860857 7.6552038 0
-550.09198 47.260235 7.6129088 0
-559.552 49.052605 7.6398959 0
-575.66272 6.1001058 7.7204933 0
-559.15137 36.39505 7.7100968 0
-571.63293 37.57259 7.7855458 0
-559.58038 43.732788 7.779449 0
-569.53296 47.165306 7.7892938 0
-575.57281 6.1298041 7.8375611 0
-575.4491 6.4184728 7.8043976 0
-576.51453 7.3366938 7.8307552 0
-560.06085 27.057352 7.8764629 0
-558.75311 32.177685 7.8979168 0
-555.04321 32.653378 7.8147335 0
-559.12402 36.332275 7.8687024 0
-559.08142 36.376957 7.8921461 0
-559.49274 43.789242 7.8784723 0
-550.07306 47.184498 7.8985724 0
-575.64325 6.9947248 7.93609 0
-561.3009 32.06065 7.9020138 0
-554.43146 35.827003 7.9809217 0
-559.51392 43.749821 7.9953785 0
-559.73914 48.807796 7.9979906 0
-578.79132 49.283802 7.9583235 0
-575.93677 5.4118152 8.017354 0
-576.40503 7.5298276 8.0617533 0
-558.99359 36.203255 8.0577679 0
-569.72485 47.000271 8.0453196 0
-569.61133 47.174435 8.0176287 0
-550.0943 47.126579 8.0162191 0
-576.32404 5.9478602 8.1827374 0
-591.05316 6.7886167 8.2936363 0
-575.23438 7.196795 8.2517385 0
-555.90637 34.038029 8.2700224 0
-559.61523 43.656467 8.2161951 0
-569.70441 46.98357 8.2017059 0
-575.51654 7.3528743 8.3095713 0
-566.70508 43.781746 8.3104839 0
-575.0462 7.1858702 8.4214067 0
-575.24152 7.4727278 8.4935675 0
-576.20221 7.7511101 8.4513044 0
-555.82336 33.978672 8.4201221 0
-571.19159 36.727139 8.4076805 0
-559.76721 37.382015 8.4605856 0
-566.65839 43.789341 8.4805813 0
-550.11438 47.096291 8.4588537 0
-555.08862 49.580353 8.4245386 0
-591.14429 7.1688843 8.5885229 0
-576.03601 7.8859029 8.5544987 0
-569.58722 47.098446 8.516633 0
-590.9375 7.3753343 8.6391001 0
-555.01038 30.473953 8.6886311 0
-558.82672 36.028412 8.6586742 0
-550.12225 47.126537 8.6375475 0
-575.39526 6.3952265 8.7398186 0
-575.67096 7.0643072 8.7424278 0
-575.54663 7.3428454 8.7034121 0
-559.81622 36.98645 8.7651997 0
-566.672 43.726414 8.7949295 0
-555.05981 49.411991 8.7405958 0
-559.49988 43.579861 8.8588181 0
-559.39642 43.851742 8.8829527 0
-550.11865 47.060551 8.8248739 0
-559.73029 48.917351 8.8930979 0
-557.7254 33.522236 8.9713593 0
-550.05219 47.238903 9.0999308 0
-558.52869 36.028088 9.1210928 0
-558.55353 36.116383 9.1840887 0
-555.03174 49.3381 9.3106899 0
-570.70428 37.347904 9.4753675 0
-550.10431 46.909363 9.4505835 0
-555.72351 33.139713 9.5745049 0
-558.47272 35.705688 9.5674238 0
-569.46338 47.036232 9.6018648 0
-555.82574 33.686966 9.7864313 0
-558.4519 35.460293 9.8414297 0
-555.09229 49.132465 9.8008928 0
-558.98865 37.072006 9.9492512 0
-551.70514 32.251945 10.01805 0
-554.49133 32.43494 10.313285 0
-558.36346 35.238461 10.335454 0
-558.21094 34.879116 10.698656 0
-555.04395 48.743374 10.690007 0
-561.58856 30.373322 10.70754 0
-557.50659 35.282158 10.950941 0
-555.08136 48.645737 10.963181 0
-558.2702 33.631805 11.075195 0
-559.84766 43.512211 11.019586 0
-559.77917 43.623951 11.319608 0
-550.48041 47.199913 11.365437 0
-550.58136 47.191586 11.406693 0
-550.12201 46.325344 11.740016 0
-550.84204 47.109097 12.10539 0
-557.97845 30.496586 12.315039 0
-560.21063 48.43499 12.549019 0
-556.68634 33.619427 12.639492 0
-559.35101 43.132229 13.092708 0
-558.8114 42.993073 15.003122 0
-558.59027 42.786716 17.005611 0
