# .PCD v0.7 - Point Cloud Data file format
VERSION 0.7
FIELDS x y z intensity
SIZE 4 4 4 4
TYPE F F F F
COUNT 1 1 1 1
WIDTH 229
HEIGHT 1
VIEWPOINT 0 0 0 1 0 0 0
POINTS 229
DATA ascii
-552.10913 51.063053 -1.1960222 0
-552.96088 51.788269 -1.0292503 0
-550.94922 52.506458 -1.0786698 0
-550.85425 52.801353 -1.0560567 0
-550.91486 53.484463 -1.0112325 0
-551.5343 53.727734 -0.92785662 0
-551.39008 54.119781 -0.91620749 0
-550.53406 54.17923 -0.95847559 0
-555.4176 50.136166 -0.8508333 0
-554.89081 50.774857 -0.85006791 0
-553.65845 52.267357 -0.84931827 0
-553.38654 52.369732 -0.85523331 0
-550.65228 54.94001 -0.87426829 0
-552.26556 54.470718 -0.68722743 0
-557.36176 50.255379 -0.44104627 0
-557.28699 50.309792 -0.39845735 0
-554.60187 55.961559 -0.043938044 0
-555.22644 51.28035 0.16488792 0
-551.354 56.846813 0.22871146 0
-550.88831 56.985073 0.22739542 0
-550.96588 57.078873 0.28689131 0
-560.01086 50.72406 0.37082627 0
-561.26648 50.614807 0.4269706 0
-560.05115 51.034855 0.41319928 0
-558.12531 54.47596 0.44214359 0
-555.99225 57.002056 0.45169935 0
-555.78479 57.087704 0.44732627 0
-555.50366 57.395203 0.44650573 0
-555.01923 57.94315 0.45019898 0
-550.91504 56.927315 0.66116351 0
-555.58539 59.070557 0.66939175 0
-559.95477 50.903435 0.73104328 0
-560.92328 53.975681 0.70799243 0
-557.79578 52.969364 0.89092374 0
-553.38086 62.125187 0.96804863 0
-550.86682 56.861458 1.0703255 0
-550.77032 57.042702 1.0916371 0
-556.05573 60.107887 1.0723495 0
-561.53851 54.797428 1.1123261 0
-561.4574 55.322735 1.1602917 0
-558.05585 58.148792 1.1284038 0
-554.5733 51.208752 1.2169049 0
-551.05695 56.778793 1.2532647 0
-550.90662 56.825401 1.2302327 0
-550.83862 56.850258 1.2393645 0
-558.13788 58.93055 1.210833 0
-558.07343 59.196014 1.2376831 0
-557.97803 59.422085 1.2603765 0
-550.77368 57.038231 1.3871837 0
-557.38562 60.05027 1.3317014 0
-557.23682 60.581436 1.3915924 0
-554.38361 51.477932 1.4281539 0
-557.04187 60.854271 1.4217008 0
-567.24408 50.521225 1.5401423 0
-559.0766 59.569492 1.543914 0
-558.7879 59.729244 1.5579026 0
-558.77136 60.063122 1.5875263 0
-556.91071 61.789734 1.5216089 0
-555.05664 51.315105 1.6793193 0
-551.00055 56.744648 1.621828 0
-556.44202 62.651085 1.6158793 0
-556.25928 62.788933 1.6314224 0
-559.97339 50.979053 1.7888167 0
-559.88599 51.024391 1.7944884 0
-566.87933 51.832985 1.7060555 0
-567.13037 52.283821 1.7926667 0
-566.68842 52.652119 1.7558402 0
-558.04681 61.443768 1.7209609 0
-569.51056 50.001907 1.8856264 0
-560.07056 50.865299 1.8238721 0
-566.69635 53.362629 1.8572142 0
-550.65344 57.131031 1.8609269 0
-564.51575 55.996891 1.9032711 0
-563.85132 57.208176 1.9705454 0
-561.55511 59.032761 1.9217584 0
-559.09027 61.68885 1.9222199 0
-557.28101 63.261639 1.9030167 0
-568.35547 52.251331 2.05323 0
-568.25464 52.340317 2.0571766 0
-564.71301 56.811455 2.0218441 0
-562.24237 59.343704 2.0695598 0
-562.11163 59.49823 2.0849011 0
-561.62482 59.7276 2.0837557 0
-561.45782 59.839348 2.0673926 0
-559.69196 61.93972 2.0906677 0
-570.22504 50.185463 2.1183951 0
-569.70441 50.248772 2.101696 0
-554.52863 50.955589 2.1904986 0
-555.0329 51.252495 2.1834965 0
-563.99011 58.36113 2.1945031 0
-561.06116 60.578033 2.1311991 0
-560.79889 60.839249 2.1438301 0
-560.56903 61.188339 2.1516681 0
-557.05597 63.439449 2.1355653 0
-555.53345 67.895508 2.193629 0
-568.82397 52.106945 2.2406063 0
-565.60968 56.891602 2.2553756 0
-550.61932 56.980625 2.2707338 0
-561.25104 60.944942 2.2222519 0
-560.88177 61.28664 2.2356708 0
-555.97052 64.207901 2.2672951 0
-571.09045 50.766979 2.3526394 0
-564.80676 58.029343 2.3047831 0
-560.80914 61.797794 2.3359973 0
-560.61206 62.132458 2.3549716 0
-555.69373 64.381744 2.3723269 0
-559.92181 51.152649 2.4851317 0
-550.91663 56.682079 2.433589 0
-566.34845 57.246723 2.4499302 0
-560.09222 63.179558 2.4260314 0
-554.5802 50.853252 2.5831521 0
-554.44427 50.966042 2.5930815 0
-551.09326 56.672482 2.5857866 0
-550.97754 56.674496 2.556716 0
-550.64996 56.921398 2.5442417 0
-561.16211 61.231422 2.6562963 0
-560.00769 50.959267 2.7009592 0
-563.5835 62.060398 2.8118129 0
-563.09326 62.688133 2.8976998 0
-556.59369 69.963341 2.8195748 0
-562.39551 63.678844 2.9582186 0
-554.77509 50.633663 3.0592861 0
-565.28375 61.153828 3.064837 0
-565.19452 61.2341 3.0715179 0
-564.90088 61.283905 3.0678582 0
-561.80713 65.189819 3.0697627 0
-555.11969 74.257729 3.0812624 0
-550.63953 56.958786 3.112504 0
-564.75336 62.36462 3.1888669 0
-559.65002 68.007706 3.1802809 0
-554.91058 75.294861 3.1665826 0
-554.5368 50.80674 3.2035429 0
-550.96576 56.57972 3.2541323 0
-564.34003 63.022305 3.2523401 0
-550.99182 56.568108 3.3151793 0
-550.66083 57.01569 3.3256989 0
-554.74146 50.582088 3.401485 0
-554.60236 50.648094 3.4375436 0
-550.71832 56.707565 3.5149906 0
-559.99524 51.011497 3.6165075 0
-559.95947 51.124111 3.6126616 0
-550.6098 56.803051 3.6529934 0
-550.58685 56.945072 3.6521101 0
-571.25604 57.470661 3.6400173 0
-563.49194 66.87236 3.6821411 0
-559.91528 51.228127 3.7953434 0
-566.45361 59.9561 3.7953186 0
-560.08337 50.943031 3.8057492 0
-559.95557 51.009884 3.8836291 0
-550.76221 56.572121 3.874676 0
-551.01837 56.426891 3.9148195 0
-550.9762 56.521282 4.0610271 0
-550.78766 56.438217 4.1656499 0
-554.84076 50.465481 4.2114897 0
-554.80682 50.511543 4.2139578 0
-550.72906 56.61784 4.2789512 0
-550.98315 56.347969 4.3598604 0
-550.76672 56.638771 4.3732305 0
-572.52747 59.881226 4.3474488 0
-554.86292 50.384739 4.4655395 0
-554.70306 50.581417 4.4448223 0
-560.19189 50.96904 4.6542282 0
-551.021 56.503731 4.7102394 0
-554.92682 50.331924 4.8497066 0
-560.08844 51.076477 4.810174 0
-551.04993 56.287952 5.1842608 0
-550.82263 56.400623 5.1803074 0
-550.71527 56.642673 5.199091 0
-550.75952 56.338112 5.3405342 0
-550.7121 56.464233 5.3696733 0
-550.60266 56.447361 5.3383574 0
-554.83917 50.346149 5.455224 0
-560.19452 50.998127 5.681478 0
-551.05212 56.237629 5.6499748 0
-550.83331 56.278538 5.6366324 0
-550.62421 56.400421 5.7876563 0
-562.13959 79.955338 5.706316 0
-551.00317 56.31588 5.8654666 0
-550.61829 56.715164 5.8955336 0
-560.05054 51.238815 5.9901328 0
-550.80969 56.214363 5.9897275 0
-554.98138 50.085545 6.004714 0
-550.72418 56.239143 6.2826204 0
-550.55719 56.447086 6.4440513 0
-566.57568 59.615341 6.4513149 0
-566.34668 59.908371 6.4845486 0
-550.61066 56.37339 6.5324965 0
-550.8512 56.157997 6.877501 0
-566.35846 59.897713 6.8073392 0
-576.56757 54.51614 7.0967665 0
-576.55884 54.645996 7.0335898 0
-550.6438 56.274494 7.054132 0
-550.46832 56.266075 7.3131385 0
-550.42395 56.36335 7.3329868 0
-561.99005 80.088791 7.3292155 0
-560.09747 51.281162 7.41925 0
-550.54639 56.265991 7.4188523 0
-560.18512 51.1707 7.5596623 0
-550.53119 56.247177 7.5950017 0
-566.51025 59.470428 7.7081127 0
-576.547 54.637394 7.8858399 0
-566.32355 59.561722 7.8649993 0
-550.46722 56.063568 8.0650873 0
-575.82739 53.844696 8.1278391 0
-562.16583 79.718903 8.3083696 0
-576.57916 54.412266 8.7773056 0
-574.21942 67.204575 8.7345915 0
-576.5434 54.337051 8.8071098 0
-550.41412 56.036114 8.9179688 0
-550.69775 55.772049 9.0495548 0
-550.57495 55.87838 9.0131397 0
-578.16248 56.973095 9.0756865 0
-550.65942 55.731949 9.1037731 0
-550.51208 55.856682 9.1137819 0
-550.5235 55.80024 9.3214598 0
-550.71698 55.774162 9.4831009 0
-550.49823 55.780907 9.4462395 0
-566.63177 76.791595 9.476862 0
-566.26074 59.376884 9.5335712 0
-576.50092 54.19817 9.9845505 0
-576.49957 54.230598 10.20633 0
-550.50293 55.638851 10.508587 0
-550.28802 55.834343 10.516809 0
-566.32678 59.060238 10.866532 0
-550.27832 55.924004 10.965076 0
-562.26959 79.456924 11.617703 0
-550.1698 55.421356 12.257055 0
-576.22717 54.155735 12.906679 0
-550.95782 51.529919 17.298134 0
